# .PCD v0.7 - Point Cloud Data file format
VERSION 0.7
FIELDS x y z
SIZE 4 4 4
TYPE F F F
COUNT 1 1 1
WIDTH 673
HEIGHT 1
VIEWPOINT 0 0 0 1 0 0 0
POINTS 673
DATA ascii
-0.57873201 0.33020461 1.098
-0.13037598 0.43504792 1.051455
-0.089885451 0.44390994 1.0901254
-0.63108093 -0.12349141 1.1884189
-0.61903352 -0.044729393 1.1814177
-0.59688491 -0.011546257 1.195092
-0.61107218 0.043578751 1.1657341
-0.58926672 0.061465666 1.185742
-0.60545897 0.14372799 1.1416572
-0.57713854 0.15536711 1.1679962
-0.60688126 0.23012559 1.1255
-0.56015563 0.25324672 1.1532351
-0.61988109 0.3875595 1.1789311
-0.54556918 0.32560512 1.1428951
-0.49230006 0.33891425 1.1901468
-0.61681747 0.43545088 1.1746856
-0.59218997 0.44769984 1.1951282
-0.1102346 0.43371472 1.104739
-0.045055948 0.44950369 1.1367512
0.0066394424 0.45281482 1.1914256
0.16271505 0.4723258 1.1523941
0.24894592 0.46704355 1.1478109
0.34422535 0.47761637 1.1675047
0.41102281 0.49498975 1.1885257
0.42649609 0.50209707 1.1907392
-0.64969361 -0.40913182 1.2784427
-0.6344946 -0.34651855 1.2723209
-0.59587502 -0.31147325 1.292352
-0.62599659 -0.24866724 1.2443275
-0.5894888 -0.24185513 1.2844479
-0.61744189 -0.15327652 1.2254498
-0.57834399 -0.14509849 1.2693145
-0.60855538 -0.072074756 1.2096401
-0.56632578 -0.046997156 1.2566499
-0.54583466 0.04929696 1.2494171
-0.4966895 0.094055995 1.2952102
-0.53010875 0.14536063 1.2340773
-0.48545021 0.16080198 1.2806418
-0.51386452 0.23727679 1.2151417
-0.47027096 0.25505155 1.2608715
-0.60427272 0.38487744 1.2038977
-0.54971099 0.38294354 1.241785
-0.45289317 0.3284139 1.2469419
-0.39725208 0.34728616 1.2959999
-0.60159153 0.41608131 1.2040001
-0.54512101 0.44316861 1.2406846
-0.48937115 0.46882063 1.2897457
-0.26190507 0.46234652 1.2878555
-0.0010541567 0.44379997 1.2140001
0.0540131 0.45781863 1.2433214
0.10999709 0.46604419 1.2901938
0.26143891 0.4693352 1.2280433
0.35354692 0.47315967 1.2449226
0.43577331 0.48645696 1.2549663
0.50078523 0.4985345 1.296
0.47104073 0.50802833 1.2381486
0.52257973 0.52270228 1.2799133
-0.71831638 -0.53265357 1.3690327
-0.68648887 -0.52773422 1.3916193
-0.71811265 -0.48457807 1.354748
-0.67739707 -0.48272005 1.3822163
-0.56018049 -0.40876266 1.3637067
-0.60885417 -0.36991543 1.3100524
-0.557024 -0.34738922 1.3502443
-0.49772659 -0.31347319 1.396
-0.54090106 -0.25174972 1.3451036
-0.4928796 -0.22391355 1.3912475
-0.5294857 -0.15341611 1.331808
-0.48177472 -0.14143415 1.3785312
-0.51674807 -0.05761845 1.3195112
-0.46937576 -0.046392307 1.3657668
-0.50532287 0.031082336 1.306762
-0.45609209 0.052090839 1.3492084
-0.39827284 0.090645127 1.396
-0.43859696 0.1467849 1.3381256
-0.3870112 0.16743116 1.3853481
-0.42105445 0.24401519 1.3239286
-0.37465334 0.25495633 1.3727497
-0.50285012 0.3932026 1.3010004
-0.44194314 0.35948065 1.3248154
-0.36364976 0.33439329 1.3518662
-0.29941177 0.36971897 1.396
-0.50172901 0.42249587 1.3028997
-0.44780293 0.44836423 1.3453832
-0.39044899 0.4922542 1.373951
-0.24012418 0.46374711 1.3105778
0.15391058 0.46559376 1.3430376
0.21577658 0.46915251 1.3829844
0.36297667 0.47693685 1.3434216
0.45498934 0.48078355 1.3443912
0.52879035 0.49303007 1.3621594
0.69216245 0.49821147 1.3960001
0.75805277 0.47943166 1.3924927
-0.41892448 0.50138503 1.3587003
-0.38280094 0.50384563 1.351036
0.56316608 0.51933908 1.3370863
0.65332609 0.53510982 1.3501338
0.72184652 0.52103758 1.3535477
-0.61609209 -0.60558611 1.4891207
-0.70244175 -0.56730998 1.4020001
-0.64089763 -0.54964066 1.4458596
-0.58771884 -0.53495216 1.490368
-0.70207882 -0.4795258 1.4160001
-0.6297161 -0.48319867 1.434556
-0.56783843 -0.465893 1.4690711
-0.4626863 -0.40593839 1.4654626
-0.51033884 -0.36632138 1.4101294
-0.4654175 -0.34765255 1.4561607
-0.50199616 -0.2780042 1.4026253
-0.45103616 -0.24989551 1.4486654
-0.39069816 -0.21892312 1.4981085
-0.4355104 -0.15368313 1.4358466
-0.38023075 -0.13948588 1.4826272
-0.42100745 -0.05509356 1.4217912
-0.36476982 -0.045114204 1.4695091
-0.40919957 0.032814063 1.4071525
-0.3530606 0.051578231 1.4506463
-0.29435396 0.078031763 1.4955137
-0.40539533 0.10104448 1.4020001
-0.34330529 0.14623283 1.4351796
-0.28365889 0.15785475 1.4846921
-0.32595432 0.24592189 1.4225889
-0.26954445 0.25358883 1.473269
0.77179575 0.26507589 1.4679434
0.8081277 0.21994783 1.481234
-0.41926944 0.39719456 1.4155899
-0.32092667 0.33132041 1.4167879
-0.26611963 0.33088914 1.4547124
0.75038111 0.35060668 1.456766
-0.40826243 0.4222452 1.4071344
-0.35814375 0.4524866 1.4518586
0.25781783 0.47779337 1.4538713
0.34985706 0.48200378 1.4358753
0.45870441 0.48504251 1.4425174
0.5519231 0.49012691 1.4439616
0.6537357 0.49530602 1.4635532
0.7367928 0.44972718 1.4434077
-0.33127594 0.50807959 1.4637251
-0.29329026 0.51158178 1.4976004
0.11243571 0.59520125 1.4075
0.29099402 0.50417513 1.4970001
0.31056145 0.54301256 1.4980874
0.59365344 0.50163323 1.4025557
0.65664536 0.51275676 1.4414036
0.74111766 0.50401062 1.4089053
0.081880644 0.61495656 1.4718083
0.11177962 0.61313522 1.4674785
-0.6014387 -0.60969609 1.5070002
-0.55004007 -0.61891782 1.5569143
-0.54223496 -0.55220336 1.5452321
-0.4955793 -0.52155989 1.5864092
-0.53090417 -0.48047647 1.5380963
-0.45787722 -0.44762105 1.5605458
-0.3626599 -0.40332714 1.5766671
-0.41628397 -0.35513175 1.5191712
-0.36296579 -0.34819838 1.5651183
-0.41023642 -0.2851783 1.5064987
-0.34895959 -0.25152189 1.5478026
-0.28933299 -0.22613773 1.5900115
-0.33424079 -0.15560684 1.5308381
-0.27720281 -0.14209805 1.5793028
-0.31673762 -0.059942696 1.5172824
-0.26732168 -0.045920279 1.5609155
-0.30718017 0.016130159 1.5067267
-0.25299686 0.050848462 1.5478144
-0.19702312 0.090773836 1.5960001
-0.23578571 0.14709181 1.5401707
-0.18643089 0.15937449 1.5890331
0.75304145 0.19838163 1.5541668
0.82259989 0.19831662 1.5297499
-0.22087979 0.24411383 1.5296633
-0.17321503 0.25624517 1.5743074
-0.011884766 0.26722202 1.585943
0.051892947 0.26859111 1.5568315
0.12850177 0.2689648 1.5738745
0.74375683 0.24724883 1.5452073
0.81390011 0.20766288 1.5318391
-0.2130547 0.33013952 1.5148052
-0.15398012 0.32965681 1.5702885
-0.010743519 0.34535429 1.5850596
0.050103009 0.35039979 1.5545676
0.12841336 0.34981629 1.5692725
0.69782352 0.39235166 1.5635
0.71366429 0.3470999 1.540627
-0.309596 0.43492392 1.5126376
-0.26252735 0.45391759 1.5566243
-0.0021769118 0.42282191 1.595
0.060596459 0.44041076 1.565768
0.12388681 0.43324283 1.5645691
0.28115767 0.47469875 1.506
0.35432842 0.48634338 1.5579746
0.48512337 0.49249297 1.5164906
0.55169898 0.49098369 1.5330288
0.66398442 0.48694694 1.5258844
0.70748866 0.4365966 1.5292152
-0.24766265 0.51108748 1.5563011
-0.19817799 0.52524096 1.5960001
0.19633818 0.59176904 1.5768001
0.25809512 0.56087697 1.5455501
0.31311211 0.52908164 1.5188907
0.5834471 0.50029546 1.5960001
0.67227924 0.50628775 1.5524287
0.70579982 0.50816268 1.5812004
-0.011552226 0.63947278 1.5749999
0.053439979 0.63272524 1.56012
0.14402416 0.62234861 1.553764
0.2089527 0.61005759 1.5781275
-0.50878 -0.6387316 1.6136464
-0.46313137 -0.63944364 1.6603202
-0.50431007 -0.58568478 1.6030004
-0.45303974 -0.55052137 1.6485305
-0.39414912 -0.51810724 1.6945642
-0.4427534 -0.48026457 1.6387573
-0.38789061 -0.47089148 1.6795398
-0.26600873 -0.4037357 1.6740003
-0.31442067 -0.35690314 1.611907
-0.25974327 -0.34514365 1.6611861
-0.30335945 -0.28835869 1.6048465
-0.24666318 -0.2521044 1.6466097
-0.19200037 -0.2287531 1.6921802
-0.23044953 -0.15473862 1.6357473
-0.18209505 -0.14542951 1.682712
-0.21892491 -0.056515876 1.6207404
-0.16921471 -0.046513248 1.6671122
-0.20787056 0.029683251 1.6086839
-0.15479283 0.05244007 1.6549302
-0.095850252 0.084762305 1.6948005
-0.13940501 0.14723814 1.6434829
-0.085796341 0.16325124 1.6883304
-0.12656453 0.244036 1.625162
-0.070797384 0.25533754 1.6734964
0.16080461 0.26323536 1.6031861
0.71889192 0.25428906 1.6032763
0.89150101 0.21295169 1.6828001
0.90952051 0.2102446 1.669345
-0.11157075 0.32514399 1.6133611
-0.060665458 0.32956627 1.6569011
0.16007292 0.33267328 1.6029999
-0.21397163 0.44306174 1.6135587
-0.16072057 0.45777589 1.6600091
-0.039670214 0.47146761 1.6609335
0.031108905 0.47798643 1.6208326
0.17339678 0.45184377 1.6318476
0.20506291 0.45695385 1.6637897
0.39465114 0.49047512 1.6030003
0.4408426 0.49205565 1.6449317
0.57219112 0.49888232 1.6100771
0.63850969 0.49827331 1.6811669
-0.20370567 0.51034516 1.6051543
-0.15106609 0.51541913 1.6536635
-0.093530051 0.52820283 1.6944287
0.016049927 0.50143439 1.6212
0.17112945 0.59697634 1.6271542
0.39457852 0.50611424 1.6056666
0.43265244 0.50385952 1.6358696
0.58545834 0.50467235 1.6401668
0.65510982 0.50642997 1.6536007
0.71721923 0.5074774 1.6486799
-0.001398885 0.63649267 1.6110001
0.056583911 0.64055979 1.6383358
0.14491114 0.62549925 1.6315664
-0.41122445 -0.70534533 1.7299999
-0.36717057 -0.71296084 1.770928
0.95347393 -0.70947295 1.7950001
-0.41572064 -0.65842855 1.7142705
-0.36087701 -0.64623374 1.7598528
0.95660716 -0.646097 1.7898848
-0.40715003 -0.57900053 1.7068081
-0.34969085 -0.55036378 1.7461367
-0.29040962 -0.51356912 1.7882842
0.94633049 -0.54766631 1.7795014
-0.34349391 -0.47494164 1.7347934
-0.28543571 -0.46655905 1.7844908
0.94370365 -0.44848746 1.7770133
-0.21342611 -0.35874316 1.7142
-0.15873745 -0.34146258 1.7569615
-0.096247151 -0.31640765 1.7950001
0.94036633 -0.34796053 1.7760153
-0.20475745 -0.29304481 1.7096
-0.14754161 -0.25109878 1.7453803
-0.08936809 -0.23181826 1.7930452
0.93552661 -0.24963458 1.771899
-0.13393377 -0.15219027 1.7323432
-0.08033099 -0.14526458 1.7830666
0.89774907 -0.15080971 1.794999
0.93037391 -0.14972378 1.7677107
-0.1204943 -0.054722469 1.7237867
-0.071967445 -0.045643087 1.7672102
0.89199454 -0.043236863 1.7945443
0.92718691 -0.050065551 1.7612933
-0.10931931 0.022833819 1.7142702
-0.054532167 0.052370481 1.7558244
0.0058743428 0.090005226 1.7943072
0.88610995 0.053893976 1.7924799
0.92486548 0.049672477 1.7547052
-0.040187314 0.14679876 1.7439482
0.0091307228 0.15273869 1.7833112
0.87832767 0.15463749 1.783132
0.9227559 0.14852336 1.7429938
-0.026442625 0.23021947 1.7312069
0.03092988 0.24486764 1.7682846
0.87181193 0.21328567 1.7709759
0.91638166 0.20515296 1.7246785
0.79828399 0.3271943 1.7930714
-0.11445494 0.44045758 1.7142563
-0.061736532 0.45081839 1.7571014
0.18739459 0.44400972 1.7768155
0.26222569 0.44370177 1.7599821
0.34232301 0.45473722 1.7509556
0.45979539 0.47986984 1.7416
0.54750419 0.49544644 1.7663721
0.80732441 0.49496165 1.7914002
-0.10371585 0.51201326 1.7098572
-0.086672515 0.5173139 1.7202883
0.34835237 0.5062809 1.7834285
0.49922395 0.50218672 1.7060001
0.54678869 0.50626707 1.7525833
0.68136728 0.5068503 1.7105001
0.7798357 0.50987554 1.7745001
0.80447191 0.51351434 1.7909501
-0.32276079 -0.72124344 1.8274503
-0.27614951 -0.71961641 1.8711183
0.86953878 -0.73419309 1.8672216
0.94195545 -0.72500098 1.822827
1.0025707 -0.74440479 1.8240001
-0.31292516 -0.65621471 1.8148179
-0.26659986 -0.64581543 1.8589311
0.87071902 -0.64874214 1.8582305
0.92076266 -0.65342915 1.8188518
-0.30369398 -0.58824784 1.8075001
-0.25143874 -0.54905599 1.8477864
-0.19509085 -0.52292174 1.8924649
0.86992007 -0.54909027 1.8612897
0.91477299 -0.55158722 1.8179219
-0.23673016 -0.47337955 1.840462
-0.18506309 -0.46468282 1.8848735
0.86338758 -0.44829282 1.8622394
0.91294777 -0.45238826 1.8191336
-0.1125298 -0.3513881 1.8095707
-0.051387381 -0.34074822 1.8656276
0.011512363 -0.37332952 1.8940001
0.85848343 -0.34932822 1.8593458
0.90945113 -0.35447794 1.8148345
-0.10751508 -0.2949014 1.8077505
-0.048400179 -0.24979758 1.843915
0.007120952 -0.23678537 1.8868766
0.79681998 -0.22778036 1.8940001
0.85228753 -0.24845248 1.8528697
0.90607882 -0.25290275 1.8102275
-0.03163204 -0.15218559 1.8342452
0.015255023 -0.14448866 1.8772695
0.79206687 -0.14493535 1.8926427
0.84904546 -0.1498981 1.8448043
0.9024837 -0.14518899 1.8060594
-0.023834532 -0.055556752 1.8220645
0.030026291 -0.045401309 1.8683099
0.78749895 -0.043978658 1.8873695
0.84499812 -0.051016621 1.8358394
0.90072221 -0.09868782 1.8040001
-0.010514304 0.021658944 1.8088489
0.044742405 0.052308857 1.8541957
0.10309191 0.07504677 1.8940006
0.78152221 0.050999898 1.8815131
0.83943903 0.04950707 1.8302087
0.058048289 0.1506938 1.8463289
0.11068339 0.16130826 1.8852659
0.51789474 0.19287218 1.8927063
0.77634907 0.15198337 1.8743412
0.83068335 0.14759007 1.8272874
0.066377163 0.22851756 1.827615
0.12056918 0.23643956 1.8853016
0.49353623 0.25816607 1.8907636
0.51840985 0.25303665 1.8729844
0.76994312 0.25323823 1.8698927
0.81881464 0.23479421 1.8269039
0.21215641 0.36839563 1.8940001
0.4865326 0.35440606 1.887396
0.51919168 0.34919283 1.8558477
0.61454099 0.32289439 1.8940001
0.7642051 0.3514747 1.8645556
0.80617636 0.3540622 1.8255256
-0.028392766 0.42581618 1.8051112
0.18794192 0.44291428 1.805563
0.22191708 0.45323297 1.8040001
0.33783612 0.4903062 1.8040003
0.47393486 0.45486751 1.8744212
0.52455586 0.4540813 1.8369396
0.6136744 0.49656725 1.8508337
0.75980324 0.45172784 1.8606589
0.80695695 0.45794126 1.8174615
-0.070532404 0.56472087 1.8336666
0.2973465 0.51273555 1.808
0.31652808 0.51398325 1.8116932
0.44848791 0.50658256 1.8562487
0.57003254 0.54880303 1.8728831
0.63056481 0.54081976 1.8702226
0.7551145 0.52638721 1.8570392
0.80739361 0.52570516 1.8076005
0.48831201 0.63262057 1.8830531
0.50736284 0.63309973 1.8829998
-0.20669128 -0.80223221 1.9627144
-0.18427879 -0.80821967 1.9886899
0.78376824 -0.8057664 1.9843006
0.80358171 -0.80529147 1.9690001
-0.23471807 -0.75181222 1.9316603
-0.1815421 -0.74919611 1.9805772
0.78222746 -0.74909866 1.9769863
0.82419854 -0.74597538 1.9269879
-0.21696429 -0.65356672 1.9171394
-0.16232371 -0.6449917 1.9609505
0.78054017 -0.64777559 1.9770235
0.82312149 -0.64920378 1.9231412
-0.20691022 -0.58168513 1.9057252
-0.14946167 -0.5496068 1.9462463
-0.093943432 -0.53588313 1.9912305
0.77332056 -0.54676741 1.972852
0.82146603 -0.5506711 1.9235845
-0.13617966 -0.46858191 1.9351847
-0.080631778 -0.4530955 1.9807541
0.76577818 -0.4478015 1.9660803
0.81520575 -0.45298827 1.9192096
-0.014007291 -0.36146703 1.9067087
0.036194988 -0.34147823 1.952021
0.75772578 -0.34828475 1.9575247
0.81098711 -0.3561219 1.9114391
-0.0036391851 -0.22278534 1.9062003
0.050735712 -0.24682578 1.9486964
0.11110143 -0.206111 1.9722263
0.69404995 -0.22226906 1.9920005
0.75203258 -0.24914595 1.9499445
0.80593526 -0.26907566 1.9039994
0.062072773 -0.15137509 1.9345676
0.11959065 -0.13455875 1.9809799
0.69169241 -0.15448269 1.9907067
0.7441197 -0.14961508 1.9432918
0.8051604 -0.16367736 1.904
0.079062462 -0.056795228 1.9237254
0.12936927 -0.042980663 1.9617292
0.69042253 -0.041569389 1.9880648
0.73844409 -0.051700417 1.9379416
0.083651699 0.024907568 1.9098758
0.13841383 0.048053928 1.9452282
0.20237724 0.086486004 1.9920001
0.67911297 0.054447412 1.980256
0.73339581 0.048499364 1.930851
0.098091565 0.104754 1.9146669
0.15086991 0.14716922 1.9335024
0.20761645 0.15341417 1.9829334
0.47758785 0.18838522 1.9691452
0.50841165 0.18642709 1.9351873
0.66971534 0.15231395 1.9747689
0.72804153 0.14823242 1.9234449
0.16750786 0.23795532 1.9254924
0.22255896 0.25930551 1.9759474
0.38923848 0.27224824 1.9800758
0.44947645 0.25025037 1.9407915
0.50691754 0.21294054 1.9107651
0.66766852 0.24904108 1.9643811
0.7194401 0.24735142 1.919286
0.1953315 0.36126208 1.9206252
0.23139855 0.33991024 1.9634486
0.38290811 0.35721293 1.9824256
0.4389967 0.34984833 1.9388846
0.67281359 0.34964845 1.9413652
0.71331555 0.34169045 1.9069717
0.37478706 0.43315539 1.9789572
0.4311986 0.43405214 1.932657
0.67574722 0.45022064 1.9311121
0.7084673 0.44015506 1.9066079
0.57878977 0.58618671 1.9144077
0.68146598 0.53134918 1.9149475
0.71578348 0.54744667 1.9123234
0.47648311 0.64674246 1.9458094
0.50951892 0.63615513 1.9736011
0.71176159 0.60356027 1.9470001
-0.13337581 -0.81924373 2.0436008
-0.091805227 -0.82041728 2.0853329
0.6851235 -0.82402605 2.0859504
0.73019111 -0.81997746 2.0463281
-0.13623731 -0.75689924 2.0311341
-0.084336013 -0.76234043 2.076154
0.67977422 -0.7478404 2.0796959
0.73268205 -0.75001121 2.0397394
-0.11545791 -0.66028643 2.0131361
-0.062616765 -0.64562947 2.0557451
0.67003429 -0.64391202 2.0762212
0.72950679 -0.65173376 2.0305374
-0.10653039 -0.59439611 2.003
-0.0476976 -0.54978359 2.0431163
0.0077321003 -0.52825677 2.0878224
0.66652989 -0.54672503 2.0670586
0.72559577 -0.55302227 2.0255902
-0.035565205 -0.46540961 2.0278244
0.0089399982 -0.46087861 2.0713482
0.65860295 -0.44790822 2.0577936
0.7172035 -0.45620403 2.0165052
0.14117426 -0.32002234 2.0542641
0.21400598 -0.33140191 2.0757146
0.59650332 -0.32635438 2.0880001
0.65229523 -0.34894204 2.0498664
0.70783699 -0.35576898 2.010098
0.090014763 -0.27899382 2.0053072
0.14977553 -0.24676442 2.05217
0.21948612 -0.20968291 2.0825524
0.59264708 -0.24433117 2.086982
0.64846563 -0.25016207 2.0419519
0.7028321 -0.28239849 2.0042629
0.16031443 -0.15719628 2.0302036
0.2207265 -0.14591612 2.0712759
0.58768922 -0.14124499 2.080261
0.64314097 -0.15002857 2.0355148
0.17456813 -0.057973161 2.0125592
0.226399 -0.052068338 2.0534115
0.58368379 -0.045555659 2.0757434
0.64178461 -0.052143946 2.028403
0.1867189 0.038441252 2.0103133
0.2232534 0.05073747 2.0275726
0.5780977 0.051365912 2.0701776
0.6295765 0.047832221 2.0212812
0.25545502 0.151207 2.0384824
0.32195282 0.19233844 2.0830002
0.47427845 0.17914069 2.0117784
0.57071012 0.14550146 2.0575581
0.61935484 0.14445077 2.0212286
0.26654834 0.24404392 2.0239189
0.34790245 0.25813633 2.0294771
0.41953373 0.22510476 2.0056086
0.59489518 0.20121455 2.0150001
0.61641675 0.20631282 2.0125999
0.27813831 0.34186399 2.0171969
0.33852592 0.34564552 2.0284929
0.23713379 0.46567523 2.0655086
0.34258267 0.42982018 2.0190563
0.65918398 0.43307865 2.003
0.25929984 0.50485635 2.0795295
0.45963755 0.67957097 2.0268617
0.4557972 0.70614678 2.0473998
-0.10034026 -0.85745311 2.1010001
-0.041113064 -0.84144521 2.1349521
0.011207995 -0.84730202 2.1868405
0.58145368 -0.84480697 2.1847813
0.63452488 -0.83939528 2.1373518
-0.032326862 -0.7590965 2.1281257
0.013624161 -0.76642591 2.1688762
0.57387084 -0.74512964 2.178051
0.63266283 -0.75132787 2.128406
-0.014518734 -0.65673035 2.1094844
0.035248261 -0.64403617 2.1592052
0.56787467 -0.64980263 2.172478
0.62142086 -0.65339661 2.1257582
-0.0026351989 -0.58764935 2.1010001
0.053016994 -0.55067754 2.1475008
0.10530096 -0.53222573 2.1923749
0.56389248 -0.54847878 2.1644585
0.61721969 -0.55083281 2.1143746
0.058865972 -0.46004713 2.130322
0.11365123 -0.45651716 2.1824272
0.55931616 -0.44926813 2.1558585
0.61038554 -0.45583406 2.1077521
0.18939734 -0.32156157 2.105
0.22512367 -0.32826293 2.1273952
0.49723724 -0.32686478 2.1940002
0.55126947 -0.34897953 2.1486976
0.60459119 -0.35846373 2.1056118
0.18343928 -0.26174605 2.1015651
0.24151832 -0.25532076 2.1345181
0.49463686 -0.21746296 2.192143
0.54810983 -0.25003648 2.1456594
0.60387677 -0.29482108 2.1036
0.24456573 -0.16451874 2.1132751
0.48775858 -0.14448643 2.1867201
0.54207903 -0.15091543 2.1376469
0.27362427 -0.033472512 2.1253912
0.31002307 -0.003133429 2.1638889
0.48402151 -0.047411095 2.1820853
0.53638518 -0.051575176 2.1341379
0.26554269 0.0046976837 2.1028571
0.31268832 0.0060032238 2.1628001
0.47495177 0.052007142 2.1766713
0.5306161 0.048409235 2.1254013
0.33264321 0.19763991 2.1010003
0.46848461 0.14847971 2.1667819
0.52577299 0.13226119 2.1160779
0.32172903 0.21206108 2.1087999
0.44030166 0.20979352 2.1727557
0.28431967 0.45870844 2.1051536
0.32433599 0.47122627 2.1362698
0.28877729 0.50861329 2.1069586
0.31567711 0.5092237 2.1245525
0.066405781 -0.91565031 2.2678764
0.10438207 -0.90619588 2.2970002
0.48746622 -0.91936231 2.2956872
0.52512199 -0.91626638 2.2657206
0.059224613 -0.85184741 2.240696
0.11315802 -0.84221548 2.2891459
0.47770405 -0.84670496 2.2835295
0.53570926 -0.85237229 2.2318566
0.062009484 -0.76433611 2.2246737
0.12777254 -0.75300878 2.2827024
0.47460112 -0.75133258 2.273741
0.52954751 -0.75405449 2.2290044
0.082232654 -0.65906519 2.2117162
0.1407993 -0.64433175 2.2591441
0.46797469 -0.64895427 2.2741523
0.52318728 -0.64731717 2.2262912
0.097781293 -0.5713495 2.2080002
0.15028447 -0.54937392 2.241308
0.20859444 -0.53796363 2.2894895
0.46383816 -0.54756844 2.2696366
0.51661271 -0.55164474 2.2209101
0.16160028 -0.45861372 2.2289646
0.22125718 -0.45251256 2.2839408
0.46085164 -0.44880548 2.2618523
0.51182824 -0.45418662 2.2145514
0.38950947 -0.30516797 2.2970002
0.45437369 -0.34894264 2.2568476
0.50437921 -0.36755365 2.2098293
0.27225375 -0.27608833 2.2080002
0.387169 -0.24534442 2.2958241
0.4491238 -0.25015795 2.2528663
0.50225067 -0.27079663 2.2080002
0.37861088 -0.14126275 2.290097
0.44096723 -0.15133655 2.2439635
0.37237367 -0.047069121 2.2781687
0.43552297 -0.051038969 2.2326317
0.37464109 0.049305674 2.2622147
0.42441443 0.048356958 2.2257209
0.37725928 0.14888032 2.244812
0.42310402 0.14592166 2.2219605
0.37993631 0.21747975 2.2320213
0.42051119 0.21171829 2.2205744
0.15542908 -0.9341262 2.3556559
0.20256738 -0.92888021 2.392
0.38107422 -0.93858874 2.3865695
0.4372251 -0.93372214 2.3496811
0.16125599 -0.85199738 2.3383441
0.21554804 -0.84609723 2.3868155
0.37640703 -0.84945691 2.3714399
0.42971423 -0.85106885 2.3377509
0.17647009 -0.75158882 2.3282657
0.22625321 -0.74754685 2.3773396
0.3675074 -0.74813664 2.3701644
0.42664605 -0.75058001 2.3344948
0.19169118 -0.6389522 2.3156106
0.24287979 -0.63607711 2.3564405
0.36072618 -0.64856482 2.3656428
0.41662237 -0.64907682 2.3302233
0.2577118 -0.55089635 2.346133
0.35065967 -0.54733527 2.3641214
0.41247207 -0.55225408 2.3262146
0.27002221 -0.45426258 2.3343978
0.35156444 -0.45058662 2.3569551
0.41025081 -0.45763978 2.3224623
0.35872522 -0.35100728 2.3386025
0.4068656 -0.37131125 2.3129363
0.35490799 -0.25199723 2.3301253
0.3492381 -0.15973943 2.3196459
0.3443284 -0.080546163 2.3246253
0.2747404 -1.0067853 2.475318
0.31122452 -1.0059954 2.4720004
0.19704898 -0.98189795 2.4090002
0.25396559 -0.94881511 2.4486716
0.33270437 -0.94880277 2.4350505
0.40790394 -0.98524487 2.4090002
0.26324019 -0.85127169 2.4353206
0.32703334 -0.85092598 2.4308577
0.27476037 -0.75107127 2.4224536
0.32187462 -0.75498116 2.4182558
0.28756297 -0.665407 2.4151981
0.31408057 -0.65211052 2.4116755
0.31272635 -0.59250665 2.4090002
0.31586409 -0.40790394 2.4090002
0.32841498 -0.24055873 2.4090002
