# .PCD v0.7 - Point Cloud Data file format
VERSION 0.7
FIELDS x y z
SIZE 4 4 4
TYPE F F F
COUNT 1 1 1
WIDTH 703
HEIGHT 1
VIEWPOINT 0 0 0 1 0 0 0
POINTS 703
DATA ascii
-0.70343029 0.27415147 1.2921118
-0.69442356 0.29258257 1.2901299
-0.70094955 0.3157669 1.2843077
-0.68292069 0.35367486 1.2805468
-0.66174984 0.45102569 1.2687552
-0.65020692 0.52096128 1.2649137
0.70878923 0.54204834 1.2959998
-0.74353904 -0.0093563823 1.384523
-0.72647774 0.058898475 1.372625
-0.69776684 0.095697083 1.3873335
-0.71334839 0.14634988 1.3507899
-0.68979943 0.17161331 1.3768709
-0.70586574 0.23215054 1.3096368
-0.67843896 0.25406641 1.3513241
-0.65075928 0.35145107 1.3453157
-0.62380981 0.44919148 1.3505142
-0.59432018 0.47551656 1.3865414
0.69633323 0.49200517 1.3259844
0.71353155 0.4863179 1.3224568
-0.62048179 0.52394807 1.327332
-0.58854306 0.52943873 1.3782721
0.39466199 0.58807057 1.3935002
0.45845151 0.57611263 1.3829029
0.55700529 0.55021799 1.3531696
0.65377223 0.53183609 1.3393624
0.70750999 0.52215582 1.3059998
-0.81658626 -0.15355217 1.4966669
-0.71584135 -0.019981727 1.4533092
-0.69518721 -0.044527441 1.4941254
-0.71190506 0.037225135 1.4291164
-0.6856364 0.066775374 1.4659208
-0.70278096 0.11261859 1.405895
-0.66842562 0.15069525 1.4498804
-0.64036328 0.24987179 1.4493204
-0.61434448 0.34239399 1.4373783
-0.59097111 0.37177756 1.4776336
0.81628305 0.39362958 1.4978005
-0.60420632 0.41689289 1.4188654
-0.57571071 0.45368844 1.4506322
0.76569724 0.46757737 1.4855481
0.80608964 0.43441877 1.4795387
-0.54789096 0.54522264 1.4509015
-0.45253909 0.59409928 1.4711154
-0.38731271 0.59098661 1.4654744
0.28451711 0.5956111 1.4831579
0.35608262 0.58938771 1.4544772
0.44623572 0.57487154 1.4345465
0.5385648 0.55484205 1.4229749
0.67964447 0.54181302 1.4934982
0.74088305 0.52194095 1.4746761
0.80230045 0.50938958 1.4635003
-0.51662678 0.61739224 1.4740492
-0.45789969 0.60511148 1.4713513
-0.38751718 0.60293943 1.4680002
0.25553599 0.61179465 1.4758551
0.32258192 0.60279226 1.4402447
-0.87170595 -0.50168133 1.5960001
-0.86511356 -0.45279694 1.5948467
-0.83959115 -0.34349328 1.5808814
-0.82058358 -0.25155398 1.5598912
-0.79442656 -0.22259848 1.5867493
-0.81138664 -0.16351812 1.5220664
-0.78624541 -0.1478913 1.5653948
-0.72673911 -0.047781099 1.5374826
-0.67898369 -0.0207051 1.5506297
-0.70384598 0.0039262562 1.5072001
-0.66017896 0.048361015 1.5496908
-0.62977248 0.14972208 1.547274
-0.59516513 0.19541983 1.5833334
0.85948461 0.18506865 1.5928229
-0.61128372 0.23972133 1.529332
-0.58611542 0.26292941 1.570868
0.77929032 0.27921379 1.5864626
0.83034182 0.25115111 1.5681821
-0.60100001 0.3130554 1.5066003
-0.56828338 0.34964919 1.5478343
0.6784572 0.3777127 1.5873765
0.75272954 0.35252967 1.5566102
0.81722945 0.34226745 1.5255208
-0.53830993 0.45057109 1.546223
-0.49752375 0.48920861 1.5960001
0.57196569 0.47564545 1.586139
0.65272272 0.4527339 1.5602044
0.73584187 0.43441448 1.522849
0.80398017 0.40460554 1.5060002
-0.51737624 0.54091185 1.5335854
-0.48784187 0.5695678 1.5664394
0.26172227 0.59302837 1.5390325
0.33999953 0.58720523 1.5164168
0.47587401 0.5719313 1.5831254
0.5489738 0.5476737 1.5593793
0.63984305 0.530451 1.5248008
0.70608127 0.51418954 1.5075295
-0.50686342 0.60342467 1.5118338
-0.47383952 0.60915798 1.5696248
0.19104791 0.6279794 1.5381153
0.2198365 0.60957813 1.5213935
0.46202716 0.60624987 1.5717899
-0.88266879 -0.64237964 1.6735523
-0.86324513 -0.54730791 1.6569258
-0.83718604 -0.45578915 1.6529877
-0.79977846 -0.42997262 1.6900001
-0.8160637 -0.35196069 1.632338
-0.78800142 -0.32665133 1.6706558
-0.80607224 -0.27784595 1.6110828
-0.77749181 -0.24942169 1.6507124
-0.75514859 -0.15039392 1.6507834
0.89556885 -0.10556918 1.6980002
0.921489 -0.13898933 1.695842
-0.73506993 -0.087460876 1.6630552
-0.634395 -0.010680192 1.6411029
-0.59889507 -0.01285986 1.6803637
0.87940794 -0.035318021 1.690099
0.91207814 -0.056061078 1.6824064
-0.62256271 0.057071194 1.6407942
-0.59065145 0.075532503 1.6885754
0.78669286 0.09013363 1.6979997
0.85840952 0.055118069 1.6786551
0.90540165 0.035925634 1.6568117
-0.61085469 0.12964098 1.6217254
-0.5819447 0.15639065 1.6572726
0.67801303 0.18327479 1.6951045
0.7588886 0.16189662 1.6703097
0.84160113 0.14296569 1.6378447
-0.55799747 0.25067672 1.6549236
0.57594246 0.27941099 1.6910344
0.65312243 0.25384736 1.6674007
0.74400491 0.24324019 1.6271063
0.81374937 0.21343358 1.6089984
-0.52720416 0.34729233 1.6494821
-0.49334478 0.36145833 1.6898905
0.47662348 0.37696207 1.6881288
0.55269438 0.35237995 1.6621219
0.64318413 0.34288236 1.6238775
0.70934319 0.31249416 1.6052667
-0.51379782 0.43825862 1.6314771
-0.48510456 0.45911661 1.6637361
0.4722572 0.45193332 1.6504041
0.54049349 0.43997845 1.6216183
0.61118788 0.41043365 1.6057757
-0.50609303 0.51381713 1.6142085
-0.46678787 0.55294597 1.6390603
0.46148705 0.53988725 1.6294963
0.51237732 0.50680971 1.6030004
-0.44170401 0.62358981 1.6539917
-0.38599503 0.68801582 1.6966667
0.36224493 0.62248039 1.6606733
0.42592335 0.61049861 1.6478376
-0.8595311 -0.7115882 1.7687775
-0.84792209 -0.64815354 1.7484787
-0.82350957 -0.55386335 1.7397766
-0.79480869 -0.52456486 1.7824115
0.96135437 -0.53083467 1.7873275
-0.80679464 -0.46522027 1.7224998
-0.78317124 -0.44051594 1.7597336
0.88859528 -0.41432351 1.7949988
0.94025552 -0.44663399 1.7801777
-0.80221373 -0.39131269 1.7305
-0.7647472 -0.34404677 1.7523907
0.879152 -0.33911172 1.7865765
0.9297483 -0.35184333 1.7585442
-0.73913449 -0.24929245 1.7511996
0.78936166 -0.21476556 1.7949986
0.85801834 -0.24588966 1.7718906
0.92226911 -0.2512098 1.7319492
-0.71952748 -0.15443024 1.740824
-0.6940152 -0.12265237 1.7813305
0.69449365 -0.10665677 1.7950002
0.76630396 -0.14012173 1.7830449
0.85090077 -0.14870699 1.7448095
0.91304153 -0.16555192 1.7178239
-0.70874673 -0.082280166 1.7280753
-0.68191898 -0.068615645 1.7728463
-0.59340894 -0.0039711064 1.7149167
0.68534923 -0.035829809 1.7879449
0.75162607 -0.049325708 1.7620796
0.83758748 -0.056621633 1.7254293
-0.60894877 0.011171619 1.7131957
-0.56884825 0.054633584 1.7488209
0.66069764 0.057003651 1.7755375
0.74927801 0.048170507 1.734331
0.81608385 0.02470229 1.7128804
-0.54246664 0.13898052 1.7558596
-0.4958275 0.11211304 1.7833
0.49429238 0.19761358 1.7920002
0.56681192 0.16768411 1.7763345
0.64451981 0.1453464 1.7468756
0.73230821 0.12319531 1.7208128
-0.52183568 0.25471199 1.7397887
-0.48887134 0.27141252 1.7809938
0.47585449 0.25496227 1.7664776
0.54370081 0.24270506 1.7334135
0.61643565 0.21197957 1.7156682
-0.50920463 0.32396322 1.7312762
-0.4808988 0.3561193 1.7581459
0.39315307 0.39033264 1.7950001
0.4519828 0.34827673 1.7547204
0.51030529 0.3119202 1.7107465
-0.45773438 0.44570613 1.7439051
0.29146913 0.49097738 1.7950001
0.36552879 0.45846272 1.7836564
0.43025008 0.44999683 1.7553164
-0.43336007 0.55108368 1.7193002
-0.39946896 0.58648622 1.723
-0.080537923 0.59719628 1.7500001
0.27550432 0.56680721 1.7873785
0.35106671 0.54905915 1.760523
0.42861426 0.5469377 1.7260906
-0.41264758 0.62968296 1.7282939
-0.38569489 0.65473729 1.7684382
-0.22325197 0.67358601 1.7906311
-0.14707363 0.66004258 1.7626309
-0.085673876 0.64981163 1.738088
0.18875559 0.68236113 1.7903321
0.24750933 0.63971531 1.7768501
0.34403229 0.61834705 1.7393377
0.41186687 0.61079538 1.715094
-0.35468701 0.73095882 1.7722611
-0.24719834 0.72781223 1.7818732
-0.15280196 0.71838975 1.7422333
-0.083891608 0.71373969 1.7168628
0.16641283 0.73036987 1.7860466
0.20466416 0.71448332 1.7686
-0.82919645 -0.72952318 1.8504303
0.88305843 -0.7283684 1.8845497
0.94427872 -0.73375636 1.8640528
1.015267 -0.74379504 1.8707681
-0.81567132 -0.65895599 1.8374062
-0.78865713 -0.63022256 1.8732913
0.87143904 -0.64555788 1.8779454
0.94549716 -0.64923614 1.8384752
1.0068185 -0.66974151 1.8405724
-0.80429196 -0.579916 1.8144345
-0.7756595 -0.54830897 1.8530998
0.79269612 -0.51386046 1.8894706
0.85366136 -0.54645383 1.8633021
0.9333781 -0.55751646 1.8177793
1.0025707 -0.59710771 1.8240001
-0.74966764 -0.45035258 1.8459339
0.76596832 -0.44165325 1.8817163
0.8487522 -0.4520514 1.8401319
0.91155922 -0.47654238 1.8080606
-0.73760808 -0.36133528 1.8441246
-0.69214463 -0.31019887 1.8812224
0.67859036 -0.33385587 1.8874322
0.75121874 -0.34990406 1.8600599
0.83398163 -0.35590741 1.8195524
-0.71145952 -0.26216039 1.825649
-0.6890744 -0.24024555 1.8637174
0.59151137 -0.21452461 1.8894169
0.65573043 -0.24550746 1.8708831
0.74863082 -0.25178078 1.8295513
0.81302929 -0.26884919 1.8049513
-0.70469034 -0.1808544 1.8104711
-0.67295706 -0.14772363 1.8492212
0.5674926 -0.13819759 1.8827255
0.6491344 -0.14868496 1.8447181
0.72582036 -0.16455729 1.812379
-0.64940715 -0.063162096 1.8531992
0.48327744 -0.022349339 1.8880162
0.55160135 -0.048443515 1.866137
0.63987941 -0.053990759 1.822892
-0.52705115 0.073933445 1.8190677
-0.49704745 0.090637721 1.8554999
0.39964348 0.095388159 1.8940001
0.4626599 0.05503941 1.8762749
0.55062276 0.050688125 1.8336977
0.61948889 0.029998168 1.8073847
-0.51306808 0.15191929 1.8309627
-0.47936648 0.16659772 1.8588725
0.29767683 0.19735481 1.8940001
0.36683476 0.16509773 1.8837304
0.45046976 0.15061361 1.8491373
0.53278047 0.13649584 1.8166953
-0.50433445 0.2051554 1.8230002
-0.46290964 0.25902563 1.852795
0.28352556 0.26128191 1.8859336
0.35178804 0.25088632 1.8642464
0.43075535 0.24623002 1.8258514
-0.44029698 0.34415591 1.8468992
-0.39964348 0.39799887 1.8940001
0.19121261 0.37498003 1.8925796
0.2561391 0.35566333 1.8706768
0.3496902 0.34972894 1.8315114
0.41809708 0.32524982 1.81145
-0.41905138 0.44140878 1.8501649
-0.39044276 0.48045313 1.8706629
0.097032778 0.48845315 1.8940001
0.16546556 0.45941818 1.8810694
0.25002927 0.45115134 1.8425663
0.32437906 0.43522799 1.8114837
-0.40325999 0.51488388 1.8364446
-0.37946513 0.52802569 1.8592821
0.075939022 0.5655176 1.8845532
0.15063027 0.55024362 1.8586555
0.23528267 0.54137552 1.8177377
0.3108331 0.50552332 1.8040001
-0.3482154 0.65513706 1.8389246
-0.25996426 0.66188949 1.8204094
-0.13666213 0.6052658 1.8703082
-0.0088990452 0.64880669 1.8824837
0.051048346 0.65041023 1.8665736
0.14688455 0.64609879 1.8244197
0.20741665 0.62078381 1.8043233
-0.32652435 0.72838515 1.8131809
-0.2885038 0.71481436 1.8071437
-0.0039008539 0.73795366 1.8557267
0.048634183 0.73755497 1.8376763
0.12283588 0.72599304 1.8100265
0.77415717 -0.80699831 1.9856037
0.81311911 -0.80079263 1.9580001
-0.80923784 -0.75630385 1.9173167
-0.77997541 -0.73371208 1.9523433
0.77032346 -0.74657327 1.9701135
0.83820051 -0.74792284 1.9244657
0.90105218 -0.77870744 1.904
-0.76234192 -0.64901274 1.9459525
0.68126988 -0.62235415 1.9832038
0.75351036 -0.64918512 1.9576094
0.82405907 -0.65452391 1.9134166
-0.73513895 -0.54854673 1.945973
0.59264368 -0.5089075 1.990364
0.65702981 -0.54522413 1.9714483
0.74940497 -0.55098486 1.9284222
0.80974388 -0.57778525 1.9052057
-0.71579832 -0.45779404 1.9323967
-0.69166195 -0.43262658 1.9746786
0.57063937 -0.4402518 1.9751887
0.64994699 -0.44944775 1.9429475
0.72345746 -0.46479979 1.9142298
-0.71000868 -0.36631507 1.9119346
-0.68166369 -0.35948193 1.9586977
0.4846651 -0.32387593 1.9855436
0.55122346 -0.34802791 1.9583205
0.63582206 -0.35768607 1.9183577
0.70265538 -0.39844692 1.904
-0.65841347 -0.2455034 1.9445996
0.46632034 -0.24247304 1.9741634
0.54755944 -0.25098652 1.9315119
0.61220968 -0.2784974 1.9097098
-0.63074124 -0.15059233 1.945852
-0.59498984 -0.10601586 1.9816002
0.37133536 -0.12623036 1.9800875
0.45129269 -0.14921996 1.9512979
0.52963555 -0.16236125 1.916935
-0.61361957 -0.061077043 1.925828
-0.58201754 -0.041340858 1.9718134
0.28280765 -0.025128946 1.988433
0.35310146 -0.047180954 1.9666436
0.44450122 -0.05504797 1.9233314
0.51132053 -0.09001933 1.9046283
-0.56471366 0.0059478809 1.9728374
0.19363764 0.081752047 1.992
0.25913644 0.05483361 1.9735048
0.35009468 0.050018899 1.9340786
0.41746384 0.038609799 1.911381
-0.43179733 0.18242414 1.928347
0.17255247 0.15708637 1.9768542
0.25063291 0.14962289 1.9455806
0.33350965 0.13405268 1.9130933
-0.42930609 0.25970569 1.924912
0.075785883 0.27145374 1.9880242
0.1526138 0.25228846 1.9589289
0.23828055 0.24499752 1.922528
0.31578159 0.20335673 1.904
-0.41365388 0.34128779 1.9246391
-0.3912755 0.37358889 1.9260005
-0.018973989 0.37801898 1.9890447
0.052198399 0.35427791 1.9687619
0.14639392 0.34758362 1.9291511
0.21794802 0.31943792 1.9090123
-0.40585667 0.42419291 1.9236137
-0.37475106 0.44529787 1.9431889
-0.11015584 0.49060324 1.992
-0.0415891 0.45432839 1.9708028
0.050141778 0.45092753 1.9369284
0.12490406 0.43712413 1.9126828
-0.36452046 0.53163058 1.9085171
-0.20237724 0.59675342 1.9920001
-0.13133074 0.56123513 1.9805347
-0.048694424 0.54985201 1.9463311
0.037136529 0.54038864 1.9104968
0.10085171 0.51181656 1.9040003
-0.35711426 0.61833668 1.904
-0.22866338 0.6428377 1.9824569
-0.15345602 0.6112783 1.9694899
-0.051422101 0.61775911 1.9216884
0.011921215 0.6029349 1.9039997
0.58928961 -0.80969965 2.0856001
0.65460646 -0.82202476 2.0620804
0.72887564 -0.81537741 2.0202389
-0.74551082 -0.72536737 2.0325551
-0.69259655 -0.71072733 2.0880001
0.5773595 -0.73924935 2.0771508
0.65014309 -0.7505917 2.04281
0.72274411 -0.75579858 2.008693
-0.72293669 -0.65061897 2.0376334
-0.69430339 -0.6089614 2.0662367
0.48671699 -0.62061566 2.0857768
0.55062681 -0.64620888 2.0598712
0.64172632 -0.65538365 2.0168247
0.7078836 -0.68596876 2.0029993
-0.70972568 -0.56696916 2.0149269
-0.68487704 -0.5412761 2.0578499
0.46539852 -0.54194206 2.0677366
0.54845577 -0.54964662 2.0290592
0.61522269 -0.57148886 2.0031586
-0.70092648 -0.49047464 2.0030003
-0.66892129 -0.44949782 2.0443325
0.38164145 -0.43921715 2.0792501
0.45044085 -0.44968471 2.0488441
0.52833164 -0.45932609 2.009187
-0.64327908 -0.34873369 2.0473588
0.29338324 -0.31285706 2.0880005
0.35497838 -0.3480123 2.0680144
0.44403705 -0.35458714 2.0221159
0.50973082 -0.39096344 2.0029993
-0.61869973 -0.24853808 2.0436869
-0.58866549 -0.23063454 2.0721488
0.26264545 -0.24081983 2.0735459
0.35102934 -0.24928519 2.0396745
0.42305675 -0.26180869 2.0071893
-0.60785955 -0.17380539 2.0120003
-0.57561594 -0.14554983 2.0493779
0.17549436 -0.13771206 2.0747302
0.24978991 -0.14954688 2.0481575
0.33862612 -0.16158026 2.0154598
0.40467057 -0.19103003 2.0030003
-0.54659599 -0.051283859 2.0453496
0.088003203 -0.031215377 2.0830007
0.15258093 -0.047987293 2.0591829
0.24231079 -0.055712696 2.0162172
0.3104977 -0.088865742 2.003479
-0.52481198 0.017589193 2.0490818
-0.49106857 0.039855458 2.0868001
-0.01101278 0.086893544 2.0879991
0.057017218 0.057124812 2.0720339
0.14825565 0.04940189 2.0271971
0.21509297 0.030334739 2.0038269
-0.033213481 0.16090085 2.0756478
0.050761525 0.15031983 2.0432851
0.12623183 0.14274767 2.0119808
-0.1319025 0.26770282 2.0809224
-0.049704753 0.25030565 2.0530074
0.04149615 0.24198377 2.0137188
0.10972217 0.21348642 2.0029988
-0.21844102 0.36893019 2.0841372
-0.14854543 0.35051766 2.058105
-0.056189284 0.34411734 2.0201209
0.03138978 0.31114301 2.0036573
-0.30770558 0.47960287 2.0879996
-0.24324915 0.45555246 2.0720143
-0.15107702 0.4483884 2.0271046
-0.087102428 0.43181977 2.0033774
-0.32183501 0.55855042 2.0813835
-0.24838914 0.54875171 2.0407944
-0.17112954 0.53562748 2.0100846
-0.32601342 0.64635742 2.0520422
-0.26294842 0.63333744 2.0211573
-0.16175227 0.63483417 2.003
-0.33178088 0.70364863 2.0338571
0.39690074 -0.80332708 2.194
0.45792916 -0.84209496 2.1725478
0.54607594 -0.83978075 2.1267939
0.61522704 -0.84780794 2.1017315
-0.71514773 -0.71970278 2.1057427
-0.68809152 -0.70818323 2.1422739
0.36776677 -0.74179053 2.1839032
0.45025337 -0.74885368 2.1441586
0.53462613 -0.7577731 2.1084459
-0.70588398 -0.67896277 2.1095421
-0.67803895 -0.64634043 2.1538622
0.28379029 -0.63484967 2.1889625
0.35145652 -0.64721215 2.1627977
0.44582126 -0.65322626 2.1206744
0.5099448 -0.68954366 2.1010008
-0.64976144 -0.54678506 2.1461282
0.26233363 -0.54412824 2.1729746
0.35137081 -0.5486356 2.1300411
0.42162099 -0.56072527 2.1031227
-0.62892318 -0.45402119 2.1454144
-0.59275252 -0.42277479 2.1888909
0.17447257 -0.43103951 2.1806276
0.25073665 -0.450212 2.1495247
0.33551833 -0.45501861 2.1118035
-0.61044139 -0.35990062 2.1192806
-0.58099455 -0.34208968 2.1632817
0.068692334 -0.31137067 2.1918657
0.15386355 -0.34570608 2.1641541
0.24882929 -0.35169604 2.1203778
0.30987954 -0.37165087 2.1011555
-0.60237533 -0.28738943 2.1147647
-0.56613606 -0.250245 2.1394329
-0.011985396 -0.22145247 2.194
0.052746899 -0.24706793 2.1767757
0.15097991 -0.24902231 2.1322491
0.2238964 -0.26992124 2.1057673
-0.52936482 -0.15195896 2.1400054
-0.49232057 -0.1114389 2.1882823
-0.034947939 -0.14093532 2.1834338
0.050244112 -0.14930478 2.1477258
0.13379443 -0.15580671 2.1091275
-0.51292056 -0.058141634 2.118618
-0.48170716 -0.044296689 2.1647165
-0.12050723 -0.03637233 2.1924288
-0.048676312 -0.049652442 2.1604433
0.042514436 -0.053213853 2.1148481
0.10834391 -0.088334739 2.1010008
-0.50394595 0.019088848 2.1027732
-0.47064775 0.034142863 2.1535251
-0.2132058 0.066491872 2.1937969
-0.14595108 0.053482648 2.1738124
-0.052744146 0.047264334 2.1271551
0.026141308 0.025922205 2.1020796
-0.31295979 0.17724578 2.194
-0.24154787 0.15668972 2.1748519
-0.14852764 0.15056388 2.1383193
-0.071770161 0.13403678 2.1061993
-0.33355969 0.25813615 2.1826711
-0.24972381 0.25045747 2.1451304
-0.16529872 0.23582639 2.1091106
-0.093042791 0.20432925 2.1010001
-0.34005934 0.35084882 2.1546726
-0.26063362 0.34438547 2.1152086
-0.19885616 0.30284515 2.1010001
-0.3379693 0.4466486 2.1237955
-0.28480846 0.42646644 2.1014509
-0.34509736 0.53018802 2.103724
-0.35940057 0.61846089 2.1010001
0.27810562 -0.91838819 2.289084
0.34422997 -0.91398591 2.2583306
0.42940286 -0.90339792 2.2103686
0.19305257 -0.81409615 2.2970004
0.25825638 -0.84532845 2.2776084
0.3488265 -0.84961957 2.2308981
0.42011937 -0.87047166 2.2080994
-0.67014086 -0.70512724 2.2113335
-0.41938648 -0.7260859 2.2486448
-0.390728 -0.7158553 2.2790484
0.17131266 -0.73931694 2.286427
0.24947001 -0.74972832 2.2533569
0.32547003 -0.75989527 2.2141452
-0.63284814 -0.64601874 2.2425456
-0.58928674 -0.63252336 2.294539
-0.40191871 -0.68892163 2.2691667
-0.39214873 -0.69119591 2.2857921
0.078393966 -0.61587059 2.2914343
0.15342766 -0.64616722 2.27177
0.24008991 -0.65293509 2.2234571
0.31453487 -0.69415623 2.2080002
-0.6161527 -0.55786037 2.2349513
-0.58653855 -0.53925914 2.2787831
-0.01351195 -0.51673752 2.2915704
0.053006459 -0.54631114 2.2794552
0.15058774 -0.54829592 2.2346525
0.21864258 -0.56355238 2.2116926
-0.60465652 -0.48473707 2.2110589
-0.57082629 -0.44513416 2.2527044
-0.10172265 -0.40090692 2.2970002
-0.034399096 -0.44269437 2.2765777
0.050327051 -0.450369 2.2475388
0.13592575 -0.4600828 2.2179101
0.2013144 -0.49465826 2.2080002
-0.54105639 -0.34849986 2.251457
-0.49664587 -0.30117881 2.2970002
-0.12779398 -0.33357602 2.2887609
-0.048949037 -0.34966648 2.2559745
0.048097383 -0.35532808 2.2188096
0.11199934 -0.38120574 2.2082462
-0.5266549 -0.26942965 2.2332692
-0.49075139 -0.25946206 2.2771165
-0.2130488 -0.22565523 2.292906
-0.1483205 -0.24853469 2.2672653
-0.054841336 -0.25289509 2.226032
0.023752972 -0.28769854 2.2080002
-0.50440317 -0.17454785 2.2101429
-0.47136429 -0.14442737 2.2462256
-0.30698118 -0.10716236 2.2970004
-0.24224041 -0.14145204 2.2789478
-0.15011585 -0.15045601 2.2453611
-0.076619193 -0.16480486 2.2112892
-0.44558647 -0.04949173 2.2508075
-0.32308918 -0.035732161 2.2808754
-0.24924606 -0.049998224 2.255821
-0.16386048 -0.056589577 2.2224293
-0.42435533 0.042210605 2.2454576
-0.34785676 0.054642521 2.2640924
-0.25768372 0.046146259 2.2255914
-0.18727848 0.015736168 2.2080002
-0.40662727 0.12312429 2.2638969
-0.35304734 0.14668643 2.2348301
-0.2762132 0.12155413 2.2107813
-0.3677856 0.23183694 2.2101467
-0.38683629 0.34518793 2.2146924
-0.50377923 -0.97228158 2.3900001
-0.45127931 -0.96994972 2.3901875
-0.36299625 -0.9734351 2.3908353
-0.25424674 -0.97583067 2.3919995
0.094357572 -0.91360682 2.3920002
0.15599923 -0.93280894 2.3680274
0.22890134 -0.92905205 2.3239202
-0.0053080255 -0.80982006 2.3920002
0.056051683 -0.83838785 2.3834934
0.14871962 -0.85132658 2.3440552
0.21323046 -0.87023908 2.3157122
-0.3656421 -0.71583676 2.3329663
-0.028329272 -0.74350995 2.3876908
0.05189456 -0.75113976 2.3573267
0.12871277 -0.75800562 2.3238163
-0.60202503 -0.63816154 2.312
-0.57393909 -0.62766296 2.3479679
-0.40282193 -0.68989712 2.3888004
-0.35553974 -0.67751956 2.3564975
-0.12157607 -0.62685841 2.3907192
-0.048672833 -0.64805371 2.3626089
0.044459719 -0.65596062 2.3275702
0.11407663 -0.68446904 2.3139989
-0.55452746 -0.54735714 2.3508644
-0.21080591 -0.52374852 2.3919988
-0.14550219 -0.54496592 2.3754056
-0.052873515 -0.55208647 2.3284893
0.012967921 -0.58333963 2.3119991
-0.52792609 -0.45353261 2.3404715
-0.48996454 -0.4198997 2.3867629
-0.30770063 -0.40532216 2.3920002
-0.23936124 -0.442727 2.3801091
-0.14924823 -0.44837907 2.3374138
-0.078937873 -0.46483141 2.3152258
-0.51376271 -0.37435293 2.319308
-0.47942269 -0.34309995 2.360673
-0.32721442 -0.34344289 2.3878844
-0.24919352 -0.35018295 2.3583562
-0.16531183 -0.36254436 2.3179975
-0.098371759 -0.39549458 2.312
-0.44976506 -0.24579987 2.3557982
-0.34793124 -0.24859495 2.3738806
-0.25516912 -0.25285465 2.3253498
-0.19500363 -0.29056472 2.312
-0.42482939 -0.14803503 2.3507428
-0.35009822 -0.15046912 2.3329132
-0.2753543 -0.17294216 2.3140454
-0.41562101 -0.061004322 2.316848
-0.36645073 -0.05790687 2.3148286
-0.40503061 0.00903414 2.312
-0.38437569 0.011813878 2.3119984
0.066219099 -1.0018309 2.46
-0.50251377 -0.95242625 2.4611113
-0.44908535 -0.95195329 2.4517963
-0.34804082 -0.96112007 2.4522719
-0.24984224 -0.96618217 2.4473767
-0.14929526 -0.97277582 2.4591432
-0.050889995 -0.95485032 2.4566083
0.04814538 -0.95306581 2.4324818
0.11643627 -0.96728247 2.4125564
-0.13099003 -0.84378082 2.4773538
-0.050045177 -0.85195267 2.4392188
0.033719242 -0.87784636 2.4133589
-0.32461002 -0.70833302 2.4477346
-0.22646707 -0.73762423 2.4874911
-0.14906923 -0.74833709 2.4460139
-0.074798033 -0.75949788 2.4198687
-0.52939284 -0.61269712 2.4378843
-0.48488551 -0.60132426 2.4835389
-0.31986827 -0.6424771 2.4774845
-0.24601859 -0.64574146 2.4622166
-0.16111501 -0.65835065 2.426976
-0.092230029 -0.69315147 2.4090004
-0.51693559 -0.56119782 2.4345975
-0.48011407 -0.53409117 2.4720418
-0.33918419 -0.54261106 2.4717469
-0.25645399 -0.55357862 2.4382327
-0.18409187 -0.58338547 2.4157999
-0.50687587 -0.48799416 2.4190936
-0.45304304 -0.44835746 2.4598658
-0.35142586 -0.45117816 2.448755
-0.28042775 -0.47077784 2.4173508
-0.4335593 -0.35594293 2.4394081
-0.37420902 -0.35684186 2.4242966
-0.42864451 -0.28375533 2.4220901
-0.39277852 -0.28641775 2.4090004
-0.50399226 -0.91916847 2.5435004
-0.44776741 -0.92118204 2.547379
-0.34838453 -0.9286682 2.5509195
-0.25165495 -0.93330085 2.5450206
-0.1528905 -0.93971866 2.5197163
-0.098234557 -0.94698107 2.5140002
-0.45299518 -0.89362574 2.5890002
-0.32675064 -0.84079522 2.5813558
-0.24833365 -0.84839654 2.5368848
-0.17716452 -0.86064631 2.5146158
-0.32532895 -0.76247942 2.5454414
-0.26533791 -0.75758415 2.5189636
-0.43630153 -0.61659169 2.5485947
-0.35131663 -0.63649607 2.5188463
-0.28880957 -0.68829685 2.5140002
-0.44423753 -0.55523372 2.5247033
-0.38530013 -0.56650484 2.5191984
-0.44161087 -0.48955578 2.5140004
-0.44057247 -0.90619498 2.6122265
-0.36772853 -0.90951687 2.6094453
-0.42836216 -0.87962329 2.634192
-0.36999536 -0.86279815 2.613682
-0.38007814 -0.7955327 2.6090007
