# .PCD v0.7 - Point Cloud Data file format
VERSION 0.7
FIELDS x y z
SIZE 4 4 4
TYPE F F F
COUNT 1 1 1
WIDTH 685
HEIGHT 1
VIEWPOINT 0 0 0 1 0 0 0
POINTS 685
DATA ascii
-0.6204052 0.37113044 1.1880323
-0.55206078 0.37054446 1.1819857
-0.47047162 0.38399678 1.1875159
0.6402334 0.36342698 1.1852137
-0.62299752 0.4133926 1.1906029
-0.54715788 0.41814584 1.1820571
-0.45314816 0.42461058 1.1862454
0.27362072 0.49968913 1.197
0.37414932 0.49837962 1.1911176
0.45121875 0.49750483 1.18928
0.55328697 0.49161366 1.1838334
0.6311878 0.47077084 1.1872483
0.18855703 0.50471991 1.1955457
0.25108689 0.50265503 1.1929363
0.34081233 0.50189412 1.1915864
0.44803548 0.50106424 1.1855001
0.68732327 0.29477084 1.2750958
0.7062434 0.28904435 1.2907778
-0.70318109 0.30708855 1.2939471
-0.62556416 0.33809441 1.2240142
-0.54518175 0.33051139 1.2354759
-0.44750524 0.36080223 1.2401952
-0.39781892 0.39374179 1.2696937
0.64134949 0.34606969 1.2461627
-0.62858218 0.47003853 1.2321632
-0.55184329 0.47407243 1.2220482
-0.44353914 0.46285224 1.2174125
-0.39489445 0.42496103 1.2589369
0.26633745 0.49848121 1.2500488
0.35583708 0.49467915 1.25255
0.4505251 0.48289928 1.2514458
0.54643136 0.48231155 1.2476304
0.64668757 0.46641737 1.2481654
-0.62726879 0.51294333 1.2397389
-0.54831958 0.51019132 1.2268031
-0.45058584 0.51658267 1.2489513
-0.34990841 0.51831132 1.2602834
-0.24865489 0.52176994 1.2625208
-0.14930901 0.51814204 1.2580096
-0.049105253 0.51575089 1.255246
0.044637326 0.51893646 1.259491
0.1609645 0.51233906 1.2525169
0.23344396 0.50169331 1.2381442
0.32541808 0.50111514 1.2163088
-0.71877849 0.29208213 1.3591161
0.68818259 0.29383162 1.3526151
0.72150892 0.27963668 1.3577981
-0.71634948 0.30520454 1.359831
-0.60139036 0.31956232 1.358
-0.54515028 0.31941044 1.3442587
-0.44321802 0.34651494 1.3463587
-0.39475787 0.38920987 1.3507411
0.64269292 0.34352735 1.3458
-0.38830984 0.41838926 1.3402793
0.2624577 0.49440908 1.3606304
0.35184431 0.48602372 1.3518907
0.44786906 0.45989233 1.3402658
0.5465371 0.46277532 1.3273709
0.65524733 0.46992967 1.344274
-0.43323147 0.52443087 1.3467155
-0.34834412 0.52013958 1.3478816
-0.25251222 0.52697891 1.3551346
-0.1484796 0.51969016 1.3494242
-0.049659934 0.5180366 1.3526002
0.050443068 0.51868492 1.3458833
0.14935464 0.52003604 1.3488373
0.22696657 0.50159281 1.3398554
0.32305825 0.50044084 1.3593334
-0.71518755 0.29190731 1.4291712
0.68253714 0.28831565 1.4497017
0.74124587 0.26618651 1.4486644
0.80677944 0.25564662 1.480261
-0.71243519 0.30457389 1.4260502
-0.60117167 0.31601036 1.4765716
-0.54625094 0.31655884 1.4493355
-0.44487473 0.34011266 1.4467547
-0.39355582 0.38488591 1.4491398
0.33199966 0.3976872 1.4960004
0.64531481 0.34114316 1.4482669
-0.80713493 0.41957623 1.4910671
-0.79482955 0.42204648 1.4650476
-0.38607877 0.41718644 1.4410532
0.19586965 0.48676237 1.4722145
0.25110784 0.46540308 1.4484954
0.34516311 0.44503757 1.4433156
0.4387756 0.45372325 1.4458042
0.57981414 0.48291487 1.4747394
0.65511829 0.472644 1.4502819
-0.43001828 0.52294993 1.4449399
-0.34854206 0.52038485 1.4470863
-0.25134525 0.52211779 1.4464906
-0.15135382 0.51792473 1.4475814
-0.050078496 0.51412749 1.4490143
0.050198261 0.5156033 1.4497721
0.14750512 0.51893789 1.4521575
0.20932567 0.50064832 1.4178463
-0.70836276 0.29049644 1.567342
-0.6978578 0.29662266 1.5250001
0.68328089 0.28582877 1.5438299
0.75036335 0.25875986 1.5506893
0.82966977 0.24983464 1.5611812
-0.81232274 0.3841888 1.5808022
-0.74421608 0.35576332 1.5734696
-0.63512784 0.31422865 1.5439999
-0.5449239 0.31064501 1.5401804
-0.44436434 0.33921766 1.5533125
-0.39298823 0.38732642 1.5499176
0.29936486 0.39870569 1.5460001
0.31020907 0.39709604 1.5280308
0.58110255 0.39224669 1.5940946
0.64552712 0.35222241 1.5615696
-0.82977593 0.41299134 1.5570076
-0.79528522 0.40170389 1.5611668
-0.43737912 0.49790353 1.5517275
-0.38496199 0.41039783 1.5266331
-0.037814185 0.46802476 1.5960002
0.011548834 0.47073048 1.5960001
0.17804436 0.47485504 1.5580808
0.254392 0.43392128 1.5486537
0.32941037 0.41439214 1.5407907
0.45606846 0.43821749 1.5924866
0.55493504 0.45038998 1.57692
0.64844835 0.45157644 1.5669993
-0.42688674 0.52261561 1.5460178
-0.34869912 0.52158719 1.5510867
-0.25094634 0.52558792 1.555256
-0.14939751 0.51948655 1.5480145
-0.046607494 0.51638657 1.5534933
0.050772641 0.51264787 1.550467
0.14154284 0.51868898 1.5489464
-0.92594206 0.19462477 1.6980001
-0.91758698 0.21379237 1.6980002
-0.70545983 0.29202479 1.6071305
0.68657929 0.28814244 1.6460179
0.74630368 0.25828347 1.6511222
0.83340102 0.24266231 1.6366062
-0.72438258 0.34475353 1.6073637
-0.60699826 0.31240875 1.6742731
-0.54803962 0.31033775 1.6539168
-0.4414584 0.33593908 1.647397
-0.35337821 0.38540488 1.6764609
-0.24984752 0.3865743 1.6782199
-0.1484261 0.38438413 1.6767364
-0.047723815 0.38192841 1.6674447
0.049042236 0.37758434 1.6712697
0.15916599 0.38043249 1.675413
0.25095922 0.3681072 1.6557068
0.35069922 0.36732069 1.6517285
0.44898447 0.36890391 1.6447115
0.54984879 0.36349255 1.6393613
0.63634747 0.34287223 1.6460977
-0.75306034 0.40041456 1.618
-0.4150728 0.47653523 1.6454999
-0.34981051 0.44743374 1.6395634
-0.24993017 0.44714212 1.6305662
-0.14987695 0.44702077 1.6240333
-0.05034988 0.4468573 1.6180276
0.050167862 0.44594517 1.6196817
0.14516887 0.44131261 1.6329497
0.23427936 0.41849056 1.609113
0.35931048 0.41119304 1.6085759
0.45674792 0.41374636 1.6039973
0.52345622 0.44050297 1.6035409
-0.42328078 0.51808894 1.6347818
-0.35013303 0.51625258 1.6318116
-0.25081888 0.51858032 1.6289206
-0.15107894 0.51496476 1.6221889
-0.05593871 0.51232535 1.6179116
0.051642504 0.5077911 1.6188381
0.1287812 0.51635897 1.623817
-0.0025977641 0.097156368 1.7950001
0.0095251352 0.097156383 1.7950001
0.19277613 0.083205856 1.7949989
0.25158596 0.074293941 1.7901692
0.35197452 0.072432004 1.7866728
0.44980866 0.072184071 1.7797776
0.5496428 0.070688523 1.7856708
0.60842162 0.076529846 1.7935723
-0.92083806 0.19782881 1.7183999
-0.86117125 0.19052114 1.7776679
-0.21416664 0.16008657 1.7949986
-0.14892495 0.16214044 1.7948467
-0.045087039 0.15547009 1.7942094
0.010559572 0.15261392 1.7926859
0.19408581 0.13450567 1.7949986
0.2506704 0.14790682 1.7863024
0.3504366 0.14744414 1.7792113
0.44781247 0.14759438 1.7745004
0.55253202 0.14333284 1.7819754
0.62028915 0.15322866 1.7904464
-0.91676676 0.21839991 1.7479206
-0.85177779 0.23373424 1.7730978
-0.55059171 0.29674423 1.7703571
-0.32243437 0.28793606 1.7949986
-0.25813568 0.291715 1.7949985
-0.14577232 0.26449546 1.7913512
-0.04208691 0.26584443 1.791967
0.024457458 0.26423851 1.7927214
0.26096305 0.24576996 1.7936492
0.35227168 0.26264849 1.794722
0.4446941 0.25376377 1.7939851
0.555942 0.25666019 1.7879887
0.6404224 0.25916889 1.7773963
0.74464089 0.2549803 1.7470651
0.84494996 0.23648465 1.7544639
-0.60023546 0.30543625 1.7500001
-0.54137969 0.30604395 1.7435218
-0.44344074 0.33063564 1.7476788
-0.34577441 0.34336886 1.7543604
-0.25021231 0.34482977 1.7661791
-0.15041487 0.34085366 1.7706504
-0.051151644 0.33812368 1.7677394
0.047296524 0.33398589 1.7622964
0.15138738 0.34850615 1.7459359
0.24790791 0.32098761 1.7536081
0.3504633 0.32414138 1.7533737
0.45116034 0.32366025 1.7599691
0.55416948 0.32411438 1.7536498
0.63581175 0.30839309 1.7291121
0.18381265 -0.0051219193 1.8848125
0.24618016 -0.0046610567 1.8727911
0.35676268 -0.0051251096 1.8565059
0.45161328 -0.0047072899 1.848228
0.55899554 -0.0099461395 1.8648208
0.63144237 -0.01124735 1.8640059
-0.41513991 0.074704036 1.8836141
-0.34896475 0.06696669 1.8625922
-0.25119585 0.072520696 1.8467278
-0.15031272 0.073688664 1.8477647
-0.048599847 0.070309557 1.8438603
0.050933391 0.061272822 1.843902
0.15171966 0.053115968 1.8411449
0.24842836 0.025518524 1.8262149
0.34938183 0.023114765 1.8229007
0.45022449 0.021743501 1.8177907
0.54842174 0.023204682 1.8184022
0.64688706 0.04746658 1.8245391
-0.42339665 0.15243092 1.8726897
-0.3481167 0.14913584 1.8317425
-0.25365534 0.14813563 1.8166274
-0.15119961 0.11852032 1.8062361
-0.060724139 0.13714205 1.8064412
0.058696181 0.14974 1.8130007
0.14742325 0.15099807 1.8299497
0.20761797 0.19207378 1.8040006
0.34128237 0.19748011 1.8040007
0.49242145 0.19309562 1.8044004
0.5315432 0.18858762 1.8046999
0.66825855 0.14758466 1.8118078
-0.91066623 0.27245027 1.8116192
-0.84540635 0.26508284 1.8395872
-0.60466278 0.29734427 1.8510001
-0.58062333 0.29451263 1.8630943
-0.42343849 0.2503182 1.8628417
-0.3516838 0.24592601 1.8225974
-0.25003323 0.24633658 1.8203733
-0.15250812 0.24055585 1.8100563
-0.059228987 0.23462886 1.8139188
0.063451923 0.24316581 1.8081028
0.15133262 0.24902444 1.8346344
0.21528018 0.26354429 1.805823
0.3480995 0.23227464 1.805113
0.48332027 0.21758993 1.8040856
0.53508848 0.23140058 1.8044293
0.68117887 0.24127658 1.8102945
0.75170654 0.24793787 1.8437735
0.83829427 0.22511622 1.8425361
-0.60953647 0.30571866 1.8539093
-0.54380327 0.30691597 1.8630689
-0.44179681 0.32052919 1.8429571
-0.38268149 0.31434453 1.8130528
-0.2502211 0.33406082 1.8069438
0.084719695 0.31069058 1.8052335
0.14464615 0.32003459 1.8364296
0.23300737 0.30474707 1.8047698
0.34879601 0.30929354 1.804473
0.44421571 0.31305373 1.8040007
0.5367828 0.3162846 1.8050525
-1.0253164 -0.01727318 1.9850669
-0.95653564 -0.020744963 1.990416
-0.85271472 -0.018191323 1.9913338
-0.78127277 -0.023368951 1.9907734
0.1750861 -0.0091611119 1.9920005
0.24349009 -0.012422254 1.9887147
0.33858067 -0.0098910769 1.9793752
0.42522976 -0.010168764 1.9880003
-1.0268588 0.051762365 1.9877311
-0.95154434 0.051991705 1.9841856
-0.85077226 0.05191667 1.9887131
-0.77874279 0.056753125 1.9882581
-0.42849091 0.057429999 1.9064286
-0.35168299 0.025472522 1.9148916
-0.24559808 0.039115757 1.9158268
-0.15026703 0.041087773 1.9443463
-0.047084585 0.034762755 1.9425302
0.032840174 0.023920532 1.9446669
0.14673793 0.010954894 1.9920005
-1.0200648 0.13383922 1.9819013
-0.94929922 0.15083274 1.979196
-0.85016578 0.14930843 1.9853009
-0.77426004 0.14981981 1.9817339
-0.44473952 0.10663828 1.904
-0.91964346 0.20565288 1.9802353
-0.84269714 0.23635617 1.9688032
-0.76854658 0.24490629 1.9736775
-0.55441403 0.29709324 1.9372033
-0.45664331 0.2966032 1.9040002
0.76426059 0.23828167 1.9156723
-0.83886379 0.3923963 1.9885621
-0.53361511 0.30485114 1.9292102
-0.48082191 0.31240323 1.9409695
-0.85322261 0.4180201 1.9836982
0.49497089 -0.81407297 2.0880001
0.55857944 -0.83200121 2.086524
0.66196823 -0.82892501 2.084281
0.75248772 -0.82634181 2.0768931
0.84689093 -0.8227275 2.0618551
0.94592232 -0.81662548 2.0371811
1.0458049 -0.81794924 2.0333679
1.1219527 -0.82688624 2.0692165
0.47777241 -0.7716465 2.0879989
0.56275076 -0.75186712 2.0877788
0.66430336 -0.74675661 2.0869825
0.75124335 -0.75083178 2.0815535
0.85153574 -0.75008494 2.0636036
0.95031369 -0.74794066 2.0361154
1.0456287 -0.74789006 2.0240333
1.117286 -0.75491291 2.0488093
0.48920628 -0.63527536 2.0879998
0.54794455 -0.63982499 2.0878704
0.65962195 -0.64381683 2.0875697
0.75187916 -0.64845091 2.0819347
0.85107011 -0.64894909 2.0709689
0.95115989 -0.65015405 2.0531962
1.0470444 -0.64978749 2.029953
1.1060479 -0.64851207 2.0260267
0.48029348 -0.53445584 2.0879991
0.5563972 -0.54492337 2.0850155
0.65230423 -0.54861045 2.0849912
0.75132793 -0.55003124 2.0800717
0.85104686 -0.54932559 2.0726016
0.9498964 -0.54877484 2.0549583
1.0475857 -0.54996878 2.0323317
1.1082504 -0.54805589 2.0284204
-0.13598101 -0.40250379 2.0880001
-0.018856032 -0.4043169 2.0880001
0.01118066 -0.4118714 2.0879998
0.16317722 -0.41519532 2.0880003
0.25693539 -0.4117341 2.0879993
0.35782567 -0.41218626 2.0854282
0.44899148 -0.42611769 2.0841966
0.55403095 -0.45057791 2.0812452
0.65185845 -0.44969568 2.0819297
0.74946392 -0.45037705 2.0777979
0.85207289 -0.45104456 2.074368
0.95319217 -0.45190609 2.0601852
1.0492632 -0.44962919 2.0376327
1.1076163 -0.44883573 2.0292096
-0.20253174 -0.33392665 2.0879998
-0.14557284 -0.32859477 2.0878732
-0.047364742 -0.34174073 2.0859287
0.0415469 -0.33350185 2.0861115
0.15371461 -0.33633655 2.0797012
0.25225398 -0.34665507 2.0750515
0.35046685 -0.34985417 2.073281
0.44656643 -0.34903088 2.0715828
0.55167055 -0.35032699 2.081116
0.64912802 -0.34970635 2.0786731
0.74981523 -0.34987926 2.0770118
0.84967613 -0.34979242 2.0702355
0.94907773 -0.35099629 2.0643327
1.0490152 -0.34983093 2.0443761
1.1077311 -0.34836662 2.0295873
-0.20585355 -0.2456284 2.0808046
-0.15006471 -0.2503249 2.0764873
-0.050315909 -0.24965812 2.0676193
0.050099757 -0.24965623 2.0640645
0.15062766 -0.24949561 2.0595999
0.24980648 -0.24988945 2.0549502
0.35013103 -0.24954584 2.0543537
0.44665429 -0.24999788 2.0546525
0.55099356 -0.24734569 2.0842884
0.6546129 -0.2481907 2.0819442
0.74958241 -0.24890105 2.0762324
0.84988129 -0.24918476 2.0720444
0.94915849 -0.25066364 2.0649407
1.0498843 -0.24929483 2.0499837
1.1092354 -0.25028729 2.0351136
-0.90472692 -0.10334557 2.0880001
-0.20951846 -0.14624399 2.0731483
-0.14960939 -0.149592 2.0561273
-0.049840998 -0.14950384 2.0490189
0.049799033 -0.14944683 2.0479858
0.1489284 -0.14895013 2.0362091
0.24913329 -0.15016064 2.0327356
0.35014635 -0.14934105 2.0331693
0.44452411 -0.15017781 2.0334911
0.55180866 -0.15148091 2.0842659
0.65897024 -0.14698519 2.0821977
0.74951524 -0.14980407 2.0748174
0.84985834 -0.14935586 2.0691731
0.94897276 -0.15012795 2.0629699
1.050638 -0.15005721 2.0501795
1.1119287 -0.14852649 2.0379303
-1.0461768 -0.038495906 2.0267365
-0.94844937 -0.038494073 2.0217319
-0.85539091 -0.054428507 2.0413992
-0.79103732 -0.010518457 2.0029995
-0.21084623 -0.051142458 2.0580299
-0.149059 -0.04957268 2.0416591
-0.049499545 -0.049509406 2.0336401
0.050417051 -0.048964117 2.0263317
0.14826044 -0.052687462 2.014837
0.24986288 -0.057203606 2.0120842
0.34872523 -0.054490782 2.0121653
0.44459367 -0.054901514 2.0144393
0.55061513 -0.057147093 2.0669963
0.65270329 -0.064444773 2.0807426
0.75342089 -0.054733422 2.0754554
0.84973872 -0.050938576 2.0680468
0.94934416 -0.05013806 2.0631895
1.0534531 -0.049457502 2.054178
1.1111974 -0.05097606 2.0359013
-1.0432401 0.042167246 2.0062599
-0.94710809 0.033372834 2.008631
-0.84375149 0.041591346 2.0047159
-0.77719045 0.041071486 2.0072494
-0.4049629 0.014457751 2.0820003
-0.31639424 0.01703023 2.0631142
-0.2500138 0.018599717 2.0529742
-0.14956833 0.018495232 2.0232403
-0.054280255 0.016764492 2.0145409
0.048428886 0.010564045 2.0135469
0.12326201 0.011498889 2.0079889
0.78681839 0.03899477 2.0715797
0.8504892 0.050471645 2.0701118
0.94989693 0.050468214 2.0656011
1.0518223 0.050222568 2.0566428
1.1112831 0.048447594 2.0415235
-1.1230036 0.17416079 2.0776777
-1.0369538 0.12279259 2.003
-0.92326349 0.17798552 2.0029995
-0.83774918 0.13160489 2.003
-0.75409859 0.14386263 2.0030003
0.79641467 0.14252834 2.0785089
0.84967917 0.15044749 2.0712402
0.9492889 0.14989223 2.0649521
1.0513803 0.15084241 2.056746
1.1117051 0.14586365 2.0441086
-1.1263473 0.21964349 2.074214
-0.9062556 0.22766268 2.0090001
-0.89804399 0.23016362 2.003
-0.70966148 0.29489508 2.0377226
-0.69991404 0.29385704 2.0510001
0.7970466 0.22766574 2.0758004
0.84555799 0.22338189 2.0713408
0.95214117 0.22006667 2.0688231
1.0569047 0.24449418 2.0500457
1.1103865 0.24645969 2.0362542
-0.83068043 0.38360119 2.0450184
-0.75371397 0.34800521 2.072722
-0.6964277 0.32748324 2.0760002
-0.50579029 0.31522846 2.0510001
-0.49866214 0.31319481 2.0150001
1.0842788 0.30198216 2.0304289
1.107358 0.30318108 2.0280004
-0.82656628 0.40704736 2.0184908
-0.79557049 0.40482569 2.0270002
-1.1470308 -0.84855378 2.1883829
-1.0513368 -0.85198832 2.1933227
-0.94857371 -0.84197342 2.1937718
-0.84843552 -0.84791541 2.1937633
-0.75379318 -0.84981102 2.1938865
-0.64868152 -0.84709352 2.1929851
-0.54513049 -0.84701377 2.1936617
-0.45010814 -0.84943318 2.1913495
-0.35002533 -0.84789151 2.1830726
-0.24879271 -0.84407473 2.1666293
-0.15006275 -0.84316367 2.1583807
-0.051103253 -0.84094155 2.1493428
0.050761148 -0.84070802 2.148875
0.14926134 -0.8392576 2.1378984
0.24959882 -0.83411336 2.1165431
0.35045359 -0.8321929 2.1086063
0.44899955 -0.83123755 2.1041462
0.53659332 -0.82645792 2.1013114
0.63620996 -0.83036101 2.1081176
0.71898574 -0.82123417 2.1012449
-1.1502521 -0.75425613 2.1904466
-1.0513074 -0.75010675 2.1909237
-0.94718152 -0.74408168 2.1931431
-0.84557486 -0.74866438 2.192632
-0.75081092 -0.74965668 2.1916633
-0.64916891 -0.74992359 2.1912413
-0.54602414 -0.74917942 2.1926081
-0.44896832 -0.75087851 2.1900132
-0.34964004 -0.75074315 2.1798198
-0.24885117 -0.74928528 2.1627319
-0.1494849 -0.74932778 2.1525791
-0.049792733 -0.74858433 2.142853
0.049663551 -0.74868774 2.143481
0.15022442 -0.75161588 2.1288898
0.24945283 -0.7507332 2.116348
0.35114262 -0.75023818 2.1076765
0.44798985 -0.74791819 2.1019099
0.54405117 -0.75112891 2.1010723
0.64249384 -0.75178325 2.1032765
0.7307052 -0.74459255 2.1013172
-1.1389974 -0.65108639 2.1903267
-1.0473598 -0.65013188 2.1859465
-0.94926989 -0.64599639 2.1896174
-0.84920025 -0.64895725 2.1891122
-0.7504524 -0.65076119 2.1906552
-0.65045142 -0.64928412 2.1907082
-0.54835391 -0.64711183 2.1920619
-0.45043468 -0.64880097 2.1880305
-0.35045141 -0.6496169 2.1771581
-0.24866362 -0.64963025 2.1590981
-0.14958763 -0.64835089 2.1491432
-0.050157681 -0.64839566 2.1411119
0.050414376 -0.64863569 2.1427541
0.14931345 -0.65193343 2.1261673
0.25022471 -0.64926028 2.1139748
0.35036179 -0.6497792 2.1053119
0.44877502 -0.65007758 2.1022177
0.54860646 -0.66086847 2.1010075
0.6385262 -0.65726924 2.101743
0.71843612 -0.6614117 2.1010005
-1.1350507 -0.54660702 2.1910219
-1.0492463 -0.55055416 2.185107
-0.94945812 -0.54767942 2.1842804
-0.85232604 -0.54920119 2.1883838
-0.75075233 -0.54946744 2.1865358
-0.64986074 -0.54850727 2.188427
-0.5492543 -0.54823983 2.1920936
-0.45069644 -0.54931188 2.1850929
-0.35026097 -0.54899985 2.1675413
-0.24993254 -0.54993027 2.1518662
-0.15026915 -0.5501923 2.1463227
-0.050167371 -0.54950929 2.1376212
0.050185777 -0.54844409 2.1345901
0.14960423 -0.54905558 2.1204937
0.24936482 -0.54973018 2.1151199
0.35087693 -0.54975796 2.1051674
0.44794598 -0.54967511 2.1012807
0.53360969 -0.56262392 2.1010048
0.62682271 -0.5569393 2.1009991
0.71150368 -0.58927101 2.1010001
-1.133652 -0.44868496 2.1857882
-1.0489858 -0.45149782 2.1829579
-0.94856387 -0.45128921 2.1841495
-0.84871191 -0.44887194 2.1847875
-0.74996352 -0.45091179 2.1851952
-0.65070617 -0.45066914 2.1862464
-0.55076557 -0.44976231 2.1886201
-0.44907317 -0.45059997 2.1739237
-0.34947211 -0.45063236 2.1562762
-0.25055632 -0.45135856 2.1439896
-0.15031615 -0.45253062 2.1298993
-0.050324082 -0.4526917 2.1242874
0.050532121 -0.4523721 2.1233032
0.14854515 -0.45042762 2.1142077
0.24837293 -0.45878929 2.1093287
0.34864995 -0.45868698 2.1024978
0.45156839 -0.46957889 2.1015797
0.51807839 -0.45251304 2.1009996
0.61546725 -0.47466317 2.1010003
0.7899515 -0.49075511 2.1010001
-1.127952 -0.35262004 2.1826854
-1.0487468 -0.34933919 2.1810012
-0.95063525 -0.35047576 2.1816061
-0.8506127 -0.34992981 2.1811385
-0.75037563 -0.35027876 2.1826191
-0.64994437 -0.35093996 2.1805434
-0.55158132 -0.35139367 2.179796
-0.45056611 -0.34911457 2.1595516
-0.35038 -0.35079116 2.1493206
-0.25225171 -0.35085508 2.1328545
-0.15447554 -0.37254438 2.101357
-0.064757779 -0.38929096 2.1009991
0.059824336 -0.37145343 2.1015124
0.13964231 -0.3826721 2.1020594
0.22106874 -0.3890385 2.1009996
0.4953557 -0.38145161 2.1010005
0.52870214 -0.35185987 2.1009996
0.62266278 -0.35036165 2.1028571
0.70967931 -0.37764427 2.1010001
-1.126621 -0.24928229 2.1805549
-1.0497488 -0.24960066 2.1826303
-0.95030433 -0.24983986 2.1806278
-0.85035694 -0.25021684 2.181164
-0.75017178 -0.24985033 2.1810272
-0.65025032 -0.2503264 2.1747906
-0.55064672 -0.24914539 2.1626842
-0.45100117 -0.24933594 2.1500211
-0.35038 -0.25088683 2.1420627
-0.25904858 -0.25126287 2.1354823
-0.18061247 -0.28642583 2.1010001
0.54003602 -0.26942924 2.1009991
0.62598646 -0.25971615 2.1009994
0.70562512 -0.22034316 2.1010001
-1.1188583 -0.15042114 2.1774755
-1.0488566 -0.1495222 2.1805286
-0.94906574 -0.15095128 2.1766565
-0.84965914 -0.15043488 2.1789091
-0.75038463 -0.15049008 2.1763833
-0.64911121 -0.14976287 2.1628671
-0.54982573 -0.14970411 2.1528883
-0.4497453 -0.15006082 2.1444678
-0.35045502 -0.15045266 2.1394124
-0.26230437 -0.15136792 2.135818
0.52699524 -0.13534343 2.1009996
0.62388057 -0.16332896 2.1010029
-1.11801 -0.078178644 2.1744037
-1.049256 -0.081109844 2.1688781
-0.9636845 -0.087711059 2.14745
-0.82989144 -0.078902818 2.1718352
-0.74236417 -0.053697124 2.1640167
-0.64864278 -0.050371442 2.1510444
-0.55189669 -0.050292838 2.1475539
-0.45148316 -0.050168782 2.139673
-0.3507989 -0.050240606 2.1366634
-0.26428887 -0.049660351 2.129262
0.52112556 -0.056662746 2.1010005
0.62393421 -0.060325801 2.1009996
0.71576059 -0.063852899 2.1010001
-0.7319783 0.048335269 2.165462
-0.64914548 0.050715644 2.1448855
-0.55153328 0.049755208 2.1435077
-0.4633235 0.018038712 2.1340344
-0.35606942 0.0066501265 2.1191349
-0.26989919 0.0020389997 2.1010001
0.79570639 0.077459991 2.1093574
-1.1243843 0.17957 2.1010005
-0.72447568 0.15068068 2.1513317
-0.64805615 0.15021512 2.1398792
-0.55248499 0.15016519 2.1379139
0.80089772 0.13317889 2.1010001
-1.131191 0.21953452 2.1165216
-0.71861655 0.24330097 2.1416643
-0.64886129 0.25061184 2.1378522
-0.55274194 0.25119904 2.1368628
0.90685004 0.24933758 2.1270001
-0.83495259 0.381293 2.1010003
-0.71128982 0.32112852 2.1230197
-0.65594125 0.31470919 2.1361055
-0.55192131 0.31263193 2.1372671
-0.97107726 -0.90667444 2.225105
-0.88434547 -0.90303892 2.2080002
-0.66687286 -0.90312493 2.21175
-0.56559765 -0.90303892 2.2080002
-1.1568959 -0.84761465 2.2085474
-1.0464605 -0.84981847 2.2116468
-0.95016533 -0.85637528 2.2106736
-0.85036421 -0.85535145 2.2080045
-0.74003631 -0.85593057 2.2081153
-0.66384757 -0.88642257 2.2080002
-0.5618037 -0.85560369 2.2080054
-0.42755345 -0.85318965 2.2080002
-1.2021346 -0.74773926 2.2080002
-1.1393691 -0.7397148 2.2116725
-1.0379176 -0.76091284 2.2094698
-0.95481431 -0.76972002 2.2084074
-0.87376136 -0.76269978 2.2081172
-0.75327808 -0.77905482 2.2080002
-0.67648029 -0.76499486 2.2080002
-0.5729332 -0.75428307 2.2080028
-1.2063261 -0.67006248 2.2323334
-1.1632193 -0.64640439 2.2101834
-1.0525868 -0.67104805 2.2080002
-0.97936171 -0.68793392 2.208811
-0.86213702 -0.6934163 2.2080002
-0.71054405 -0.6162138 2.2080002
-0.55978084 -0.66012937 2.208004
-1.2075425 -0.57849741 2.2371998
-1.1755052 -0.56269574 2.2112405
-0.85510695 -0.51766562 2.2080002
-0.64804065 -0.58477044 2.2080002
-0.56687582 -0.54802251 2.2080002
-1.1704698 -0.45565423 2.2129395
-0.55409396 -0.48986506 2.2080002
-1.1580372 -0.24253592 2.2080002
-1.0775113 -0.2933439 2.2080002
-1.1561198 -0.12845777 2.2080002
-0.78416753 0.01342096 2.2080002
