# .PCD v0.7 - Point Cloud Data file format
VERSION 0.7
FIELDS x y z
SIZE 4 4 4
TYPE F F F
COUNT 1 1 1
WIDTH 703
HEIGHT 1
VIEWPOINT 0 0 0 1 0 0 0
POINTS 703
DATA ascii
0.45097241 0.19926688 1.098
0.44853777 0.25918949 1.0936853
0.58221602 0.26509073 1.0922379
0.60197532 0.23312052 1.0958183
-0.0058665853 0.38915443 1.0923003
0.040035378 0.38237387 1.0881124
0.37424105 0.3846522 1.0687803
0.43350527 0.34937406 1.0795202
0.57722139 0.3417955 1.0868419
-0.0086477417 0.42226562 1.0917051
0.038259149 0.42670184 1.0851593
0.16322449 0.44072369 1.0828456
0.25250879 0.42908052 1.0676
0.34638202 0.41655985 1.0412357
0.43654254 0.42222071 1.0559968
0.59702003 0.40702352 1.0970452
0.60223812 0.40841815 1.0974
0.38769436 -0.001039395 1.197
0.45168424 -0.023030264 1.1776596
0.51364201 -0.016063269 1.1812412
0.39770645 0.037704483 1.1907561
0.44423765 0.050604705 1.1497521
0.53745091 0.060186114 1.1482545
0.60267949 0.096081086 1.1539999
0.39920723 0.15241821 1.1512002
0.44402543 0.149267 1.1203921
0.55190325 0.15196283 1.1269197
0.61004156 0.15098353 1.1301316
0.43316448 0.23510092 1.110755
0.54650432 0.24377006 1.1241691
0.60462385 0.21137954 1.105772
-0.034432542 0.37107679 1.1531122
0.055219103 0.34272516 1.1383711
0.14210331 0.3481794 1.1599916
0.20750591 0.35705158 1.1892803
0.39566493 0.3560299 1.1142398
0.40658376 0.32173094 1.1134392
0.54594475 0.3595708 1.1380481
-0.63274372 0.49121982 1.1874056
-0.58245093 0.49864978 1.1970003
-0.053706188 0.43020421 1.1463838
0.080888815 0.45701203 1.1368384
0.14266057 0.43303314 1.1394286
0.25075749 0.41047427 1.1219249
0.34764436 0.40890428 1.1533743
0.47888285 0.43101889 1.1285517
0.54703957 0.43266201 1.1182491
0.60743642 0.45091116 1.1165096
-0.61631829 0.50238806 1.192922
-0.57012421 0.50417364 1.1966105
-0.015309778 0.502693 1.1925555
0.39767894 -0.0074352259 1.2071198
0.4233323 -0.034090981 1.2053328
0.5115993 -0.038640842 1.2026665
0.39626804 0.014885913 1.2028137
0.40213686 0.013568577 1.2020001
0.097054206 0.29904476 1.2373334
0.13240281 0.29837251 1.2254462
-0.70723766 0.38477084 1.2959999
-0.12066777 0.37723064 1.2642248
-0.056175221 0.34675318 1.2430545
0.044349305 0.313126 1.2423817
0.15062897 0.30780587 1.2114478
0.20473564 0.35441655 1.2033918
0.55775452 0.34232566 1.2443974
-0.70478576 0.43466559 1.2935237
-0.64007616 0.46575043 1.2439288
-0.55194408 0.4731304 1.2431476
-0.45810658 0.48423353 1.2712541
-0.38538361 0.49261895 1.2908922
-0.13046131 0.42865473 1.2503908
-0.065519951 0.46577719 1.221024
0.1795136 0.42268661 1.2184111
0.20216258 0.43032584 1.2370667
0.42271337 0.40183863 1.202
-0.53024501 0.50524116 1.2110745
-0.44471851 0.51223999 1.2461139
-0.36538944 0.52160162 1.281412
-0.13840367 0.53717566 1.2831736
-0.06441579 0.51679391 1.2561207
0.74022627 0.088329174 1.3882718
-0.71998268 0.17019324 1.3572145
-0.66296893 0.18174013 1.3698645
-0.59874105 0.19836989 1.3930001
0.73082697 0.12076039 1.3543373
-0.70824307 0.24534222 1.3106725
-0.64979774 0.24946806 1.3402662
-0.58441627 0.25483176 1.3863264
0.36076733 0.2913796 1.3680508
0.42594874 0.28311962 1.3853205
-0.70636386 0.34697863 1.3048162
-0.64911205 0.35152438 1.3403229
-0.58706379 0.35851359 1.3883605
-0.2089268 0.3883611 1.3845495
-0.15050763 0.35738644 1.3430699
-0.052879274 0.32013455 1.3423681
0.024631148 0.31038064 1.3407818
0.19457364 0.33592156 1.3933527
0.25694507 0.35231027 1.350711
0.3446033 0.35762405 1.3630972
0.40422419 0.36509573 1.396
0.58185744 0.32094601 1.3101181
-0.70555782 0.42288247 1.3049743
-0.64653361 0.42765102 1.3305472
-0.55475736 0.43788269 1.3506422
-0.44796973 0.45506132 1.3407409
-0.34940493 0.46819764 1.3451492
-0.25159293 0.46867478 1.3738904
-0.17801304 0.42995289 1.3248813
0.26273546 0.44307235 1.3538282
0.33978015 0.45017046 1.370929
0.43308392 0.46617383 1.3904855
-0.31923652 0.52319044 1.3124946
-0.24918166 0.53375483 1.3520037
-0.15233785 0.53166288 1.3499539
-0.095159248 0.52186853 1.3028517
0.58211863 -0.10948168 1.4990002
0.62712824 -0.10451123 1.4973339
0.56229603 -0.081462346 1.4902065
0.63618219 -0.075309716 1.4927613
0.73819458 0.057660148 1.4280365
-0.73142397 0.14333448 1.4211531
-0.63891 0.15076676 1.4366392
-0.55870456 0.17195387 1.4594672
-0.48818669 0.18814966 1.4926397
0.46647236 0.19701427 1.4351429
-0.53631037 0.24771531 1.4327501
-0.48393145 0.24270742 1.4870598
0.17130312 0.29638258 1.4681387
0.21267954 0.29733616 1.4615476
0.37480655 0.24978022 1.4305674
0.44700173 0.23840633 1.4228178
0.5246048 0.29674193 1.4966668
-0.60017985 0.33478594 1.4020001
-0.54061377 0.34935653 1.432189
-0.47482699 0.36617076 1.4848579
-0.23043476 0.37185419 1.4528052
-0.153981 0.33100125 1.4445553
-0.063102759 0.31383041 1.4466071
0.096179202 0.3417756 1.4625791
0.15623084 0.3222087 1.4397049
0.22495084 0.30894688 1.4194225
0.38775253 0.32690927 1.408479
0.4493815 0.34483227 1.4400417
0.51450956 0.3373982 1.4847314
-0.53282291 0.42434385 1.4234428
-0.45878476 0.43013063 1.4559164
-0.34618872 0.42731124 1.4474856
-0.261316 0.43650609 1.4331447
-0.18857935 0.49301523 1.4064033
0.23132735 0.46917215 1.4072398
0.3609626 0.46162319 1.4308341
0.44313595 0.45219305 1.4544137
0.51118392 0.44679025 1.4652263
-0.17879175 0.53085077 1.406871
0.23904002 0.50395548 1.419
-0.85579181 -0.11567067 1.5926603
0.56080836 -0.11364959 1.5247302
0.63251072 -0.12161202 1.5187944
0.86624134 -0.10337263 1.589474
-0.83300608 -0.045058336 1.5794274
-0.79300606 -0.010613252 1.5930001
0.49503043 -0.072069556 1.5512202
0.51955199 -0.083248854 1.5328348
0.6702134 -0.063077137 1.5089973
0.79315227 -0.020664299 1.5857062
0.82556778 -0.044488657 1.5575484
-0.82116479 0.046852618 1.5531358
-0.77753139 0.059332948 1.5801288
-0.52801269 0.098396063 1.5960001
0.79165554 0.017776022 1.5845945
0.81831801 0.024619957 1.5337662
-0.81619573 0.12338123 1.5281036
-0.76483631 0.12293957 1.5669159
-0.60012168 0.12447733 1.5090001
-0.53697771 0.13267981 1.5371373
-0.45273691 0.16069134 1.5515012
-0.39694086 0.19431984 1.5914377
0.37345362 0.19021447 1.5563616
0.4085792 0.18862689 1.5511899
-0.43499681 0.25046939 1.5273819
-0.38843969 0.25861222 1.5769645
-0.083808064 0.2993145 1.5320001
0.35969952 0.22403765 1.5257667
0.41507673 0.21324226 1.5419999
0.52083039 0.2978037 1.5138338
-0.50128889 0.31341454 1.506
-0.4347401 0.3390671 1.5171608
-0.36230475 0.36152211 1.5580926
-0.2545898 0.35427335 1.5480419
-0.15261504 0.31780174 1.543457
-0.082912244 0.31092075 1.5279086
0.52437365 0.35231286 1.5265902
-0.42878184 0.42151558 1.5125238
-0.35730886 0.40690199 1.5164664
-0.29173937 0.40677091 1.5140003
0.47790447 0.43450934 1.517266
0.52637058 0.43008849 1.5492465
-0.92093283 -0.64054435 1.695009
-0.8890813 -0.6915077 1.6980001
-0.91602343 -0.5458172 1.6925962
-0.89278883 -0.50635493 1.697
-0.91013694 -0.45160559 1.6864206
-0.88678151 -0.44082689 1.6934023
-0.90685111 -0.35676286 1.6728234
-0.87158537 -0.34282964 1.6845484
-0.90309751 -0.28825748 1.6559333
-0.84873039 -0.24749795 1.6625278
-0.78700197 -0.22348288 1.6940416
-0.83453959 -0.15543531 1.631356
-0.77445257 -0.14468661 1.6770408
0.79374415 -0.10271453 1.6818001
0.83412176 -0.10593855 1.6472558
0.93183982 -0.1179544 1.6980001
-0.81272191 -0.073322803 1.6138451
-0.75887281 -0.047709946 1.6483369
0.77483177 -0.045728132 1.6458964
0.82020843 -0.085054696 1.6279817
-0.7323584 0.044607814 1.6302048
-0.69164932 0.073664956 1.6467874
-0.51805657 0.098782614 1.6322354
-0.47265363 0.09344653 1.6326911
0.77119422 0.018761571 1.6186435
-0.71468896 0.11630547 1.614051
-0.6750564 0.12088818 1.6590316
-0.5127672 0.10467887 1.6226954
-0.43675783 0.12459865 1.6199371
-0.39280999 0.17951915 1.6309618
0.55663496 0.18813306 1.6890934
-0.37410098 0.24985044 1.6181331
0.54993308 0.21402767 1.684124
-0.33421153 0.35081142 1.6401061
-0.2528871 0.32855064 1.6501241
-0.17906679 0.31562507 1.6423542
-0.90958273 -0.70279986 1.7184
-0.84297878 -0.71321148 1.771054
-0.79770088 -0.71896511 1.7935597
0.89318538 -0.71666777 1.7854822
0.93196917 -0.71176529 1.7642993
-0.91273832 -0.65320629 1.7172203
-0.85034573 -0.64925635 1.75279
-0.78579628 -0.6410315 1.7908926
0.89244848 -0.65625304 1.7893531
0.92691052 -0.64870375 1.7594841
-0.9098047 -0.56113315 1.7118751
-0.84928507 -0.55018187 1.7356694
-0.77729738 -0.54544067 1.78299
0.89695096 -0.57217026 1.794412
0.92916518 -0.55097902 1.7626284
-0.90487432 -0.46860883 1.7060001
-0.84227902 -0.45333061 1.723349
-0.76831609 -0.44674316 1.7759706
0.93998086 -0.45025632 1.7692456
-0.82564038 -0.3572771 1.7192044
-0.76054162 -0.3479712 1.7687356
0.95359516 -0.35126886 1.7776043
-0.81621796 -0.28919038 1.7121255
-0.75060982 -0.25118241 1.7599802
-0.69516158 -0.2301439 1.7949988
0.96349204 -0.25430384 1.7837512
-0.73387551 -0.15229864 1.7599311
-0.68977416 -0.14377142 1.7929749
0.95553821 -0.15151577 1.7764995
-0.72159511 -0.054489154 1.7552546
-0.67901528 -0.043392893 1.787133
0.7717973 -0.065674372 1.7060001
-0.71119857 0.04349288 1.7443241
-0.66589671 0.052560426 1.7771223
-0.5252679 0.091960847 1.7950001
-0.70680749 0.10670707 1.7473752
-0.64568567 0.11082023 1.7469727
-0.59124804 0.10945968 1.7612498
0.53777111 0.18495476 1.7232524
0.49089772 0.22399202 1.7510192
0.52012575 0.21737202 1.7259731
-0.33440849 0.33896494 1.7325912
-0.26175883 0.31675461 1.7352203
-0.19998586 0.30664498 1.7060001
-0.80162191 -0.72181809 1.8130912
-0.74648678 -0.72934729 1.8438259
-0.68270296 -0.73394257 1.8829501
0.84690583 -0.72981066 1.8499873
-0.73828858 -0.65213186 1.8318213
-0.67626017 -0.64511251 1.8757241
0.85884041 -0.64962214 1.8473413
-0.72929925 -0.55176669 1.823069
-0.66819978 -0.5463897 1.8664907
0.87270409 -0.55089515 1.8515522
0.90787154 -0.5173313 1.8087591
-0.7180692 -0.45415768 1.8181134
-0.66008508 -0.44823608 1.8603287
0.88338751 -0.45135757 1.8643335
0.91214442 -0.44614792 1.8196478
-0.71068078 -0.35650021 1.810451
-0.65326107 -0.34906337 1.854968
-0.59486973 -0.30741841 1.8932147
0.88784039 -0.35312927 1.8838089
0.92035562 -0.34898636 1.835997
-0.70481414 -0.27190343 1.804527
-0.64894408 -0.24997763 1.8424577
-0.58880848 -0.24456741 1.8886082
0.89361107 -0.26101226 1.8884013
0.92880571 -0.24753357 1.8422465
-0.64063424 -0.15087968 1.8348987
-0.57091093 -0.14273843 1.8798759
0.89913917 -0.18443279 1.8940002
0.93243408 -0.16607024 1.8501168
-0.6322118 -0.053752262 1.8259553
-0.55364859 -0.048052803 1.8700061
-0.49523726 -0.015418345 1.8940005
-0.61809641 0.045355603 1.8192931
-0.55060238 0.049636822 1.8529041
-0.48699248 0.062460732 1.8847243
-0.60935813 0.10182077 1.8040001
-0.54904085 0.10505669 1.8458214
-0.46632913 0.13277449 1.8894281
-0.43194655 0.24368149 1.8937751
0.48702329 0.2139533 1.8073335
-0.4123306 0.35547364 1.8940002
-0.6079309 -0.80207807 1.961143
-0.5593437 -0.80844402 1.9890121
0.76342237 -0.80603302 1.9804572
-0.63405657 -0.74704647 1.9285014
-0.56835216 -0.7453773 1.9690373
0.78002638 -0.75060099 1.9608458
0.81093013 -0.73491704 1.9162505
-0.6279006 -0.65038508 1.917803
-0.55690938 -0.64752865 1.9683532
-0.49599725 -0.62140191 1.9920003
0.78708184 -0.65425545 1.9729887
0.81514943 -0.6449917 1.9265634
-0.6198355 -0.5546816 1.9160115
-0.55069137 -0.5481059 1.9594456
-0.49094525 -0.53944057 1.990701
0.79500973 -0.55919957 1.9824125
0.82538533 -0.54695934 1.938764
-0.61131978 -0.4555791 1.9068893
-0.55085337 -0.45022878 1.9452008
-0.48263037 -0.44138995 1.9855998
0.79701185 -0.48864964 1.9873046
0.83685344 -0.45073453 1.9454951
-0.60554892 -0.36361888 1.9041276
-0.54907376 -0.35051116 1.9295535
-0.46535537 -0.34685457 1.977021
0.84667164 -0.35089654 1.9464281
-0.54088271 -0.25131908 1.917766
-0.45268798 -0.24811314 1.9650272
-0.39264655 -0.23077498 1.9920005
0.86024344 -0.25014344 1.9477532
0.90105218 -0.20005012 1.904
-0.52657455 -0.15678434 1.9075037
-0.45070246 -0.14960906 1.9454321
-0.38165715 -0.14087482 1.9824518
0.87354857 -0.16730013 1.9366525
0.90616113 -0.15045491 1.9083089
-0.50707412 -0.071882591 1.9048361
-0.4493596 -0.050245542 1.9263216
-0.36898553 -0.048653852 1.9744387
-0.50095195 0.011573147 1.904
-0.43986484 0.046548516 1.9187572
-0.3586928 0.053359766 1.9674209
-0.43071631 0.14530233 1.9114652
-0.35301617 0.15005691 1.9594358
-0.29457542 0.1611053 1.9919996
-0.41630936 0.24568659 1.9095585
-0.3499876 0.25007796 1.9472253
-0.28719226 0.26009935 1.9906952
-0.40873316 0.3357456 1.9073461
-0.3555443 0.32933998 1.9337766
-0.27106604 0.32804912 1.9867523
-0.51846755 -0.81126678 2.0109022
-0.44548965 -0.82297802 2.0596564
-0.39525148 -0.83290112 2.0880005
0.6946438 -0.83041978 2.0818951
0.72189212 -0.81801051 2.0430338
-0.52295631 -0.75492728 2.0048099
-0.45166656 -0.75004369 2.0442398
-0.39002374 -0.74439985 2.0833592
0.6954931 -0.76271564 2.0867591
0.73279119 -0.75001013 2.0428677
-0.5091942 -0.66168195 2.00436
-0.45035765 -0.64975607 2.0330496
-0.3803266 -0.64451361 2.0795906
0.7441175 -0.64883757 2.0405645
-0.50438881 -0.58845365 2.0030003
-0.44429427 -0.54993361 2.0247042
-0.36239374 -0.54587471 2.0735028
0.75911319 -0.54918838 2.041198
-0.43606657 -0.45285657 2.0143487
-0.35267529 -0.44891596 2.0607138
-0.29355994 -0.42302027 2.0879991
0.7672469 -0.45160142 2.0451157
0.80530638 -0.42857012 2.003217
-0.41706878 -0.35620603 2.0069258
-0.35079122 -0.35000402 2.0444534
-0.28090018 -0.34368977 2.082963
0.77215397 -0.35213441 2.0495152
0.80883783 -0.34166032 2.006135
-0.40581137 -0.28395009 2.0029991
-0.34586677 -0.25144595 2.0260479
-0.2716378 -0.24800467 2.0775766
0.7763418 -0.25240237 2.0593419
0.81363863 -0.24417137 2.0131428
-0.3347784 -0.15383495 2.0166194
-0.26440763 -0.14648159 2.0656435
0.76683414 -0.19088185 2.06657
0.82050204 -0.19315766 2.0119996
-0.31938142 -0.05275977 2.0110006
-0.25419536 -0.048788328 2.0574205
-0.19490612 -0.00271962 2.0880001
-0.31171438 0.036852773 2.0048571
-0.25064105 0.050259661 2.0468707
-0.1921093 0.049424745 2.0870078
-0.30417377 0.15111786 2.0029993
-0.24848202 0.14923558 2.0319324
-0.18297806 0.15443498 2.0778704
-0.24039054 0.24707854 2.022259
-0.16705105 0.25491402 2.0700357
-0.30437255 0.35307217 2.003
-0.22521769 0.33281305 2.0222235
-0.15095241 0.34988451 2.0628405
-0.097906336 0.38618609 2.0879998
-0.12214667 0.40386757 2.0649168
-0.09435311 0.41206872 2.0872939
-0.40318543 -0.81914139 2.1010001
-0.3454859 -0.83698863 2.1311502
-0.26258421 -0.84477568 2.1780651
0.65118271 -0.8405751 2.1471992
0.70238185 -0.82339835 2.1010001
-0.34049109 -0.74965507 2.1204827
-0.25377357 -0.74679601 2.173197
-0.19368751 -0.72556984 2.194
0.66131449 -0.7508471 2.1433697
0.70411944 -0.72774935 2.1010005
-0.33186066 -0.65129101 2.1097834
-0.24981092 -0.64852923 2.159584
-0.18522976 -0.63891935 2.1934206
0.66751647 -0.65203112 2.1483498
0.70870084 -0.63909149 2.106425
-0.31704959 -0.5619455 2.1061561
-0.2500734 -0.54882348 2.1401904
-0.1771131 -0.54326439 2.1876562
0.67485273 -0.5501157 2.1547143
0.71407765 -0.54682034 2.1048257
-0.30677027 -0.4813568 2.1010008
-0.24654981 -0.45195171 2.1244175
-0.1636937 -0.44797096 2.1732571
0.67794412 -0.45315626 2.1632292
0.71899885 -0.44709533 2.1113405
-0.23235796 -0.35263437 2.116349
-0.1520216 -0.3490743 2.1670537
-0.097161293 -0.30481976 2.194
0.68254405 -0.35183784 2.1722953
0.72158802 -0.34795195 2.1204965
-0.22204085 -0.2519407 2.1101758
-0.14995107 -0.24983732 2.157789
-0.091718078 -0.24119702 2.1940002
0.68749851 -0.25622869 2.1784873
0.72748137 -0.24808295 2.1309631
-0.21609923 -0.16016892 2.1034501
-0.15052494 -0.14953297 2.1483672
-0.085322157 -0.14582166 2.1932187
0.69193953 -0.17970887 2.1827247
0.72483921 -0.17961596 2.148556
-0.20557761 -0.061420411 2.1009996
-0.15142858 -0.050313719 2.1336808
-0.079061344 -0.046878058 2.1822264
-0.1438407 0.049903326 2.1244836
-0.066472948 0.053765412 2.1771395
-0.13535789 0.1476572 2.118201
-0.053431001 0.15134549 2.1701362
0.003175206 0.19178241 2.1940002
0.71188116 0.15558508 2.194
-0.12048078 0.24117112 2.108114
-0.050666727 0.24988398 2.1534936
0.0089598233 0.25586641 2.1915345
-0.10518316 0.33233359 2.1009996
-0.049522035 0.35036945 2.1362662
0.012316061 0.35705727 2.1835399
-0.038054716 0.42702934 2.131604
0.021825384 0.43964016 2.1744998
0.13443145 0.51118308 2.1805
-0.21622388 -0.90484774 2.2157648
-0.14210875 -0.91498488 2.2652912
-0.094355442 -0.92226857 2.2963605
0.55978996 -0.91270328 2.2612121
0.60475343 -0.90426588 2.2110002
-0.21491334 -0.85674673 2.2119884
-0.15013963 -0.85143995 2.251524
-0.074557997 -0.83900994 2.2929575
0.56646878 -0.85332948 2.2627351
0.60864383 -0.84375817 2.2154558
-0.21099509 -0.77957863 2.2080002
-0.14758359 -0.75226158 2.23785
-0.073336057 -0.75376713 2.2805429
0.57269233 -0.75207806 2.2642553
0.61300999 -0.74561298 2.2181342
-0.1402687 -0.6513797 2.2267118
-0.061867137 -0.64698762 2.2758396
0.5781157 -0.6542719 2.2723267
0.61835873 -0.64405704 2.2218964
-0.13104035 -0.55330956 2.2174737
-0.051889043 -0.5483374 2.2642131
0.0055847736 -0.53414363 2.2969997
0.58317208 -0.55166835 2.2770801
0.62276709 -0.54790819 2.2281976
-0.11527213 -0.45341468 2.2101204
-0.050835121 -0.4505454 2.2511692
0.0090617053 -0.44550276 2.2904794
0.58899003 -0.44949859 2.2878833
0.62710744 -0.44810015 2.2403843
-0.1050852 -0.38263431 2.2080002
-0.050391406 -0.35043359 2.2362559
0.018018216 -0.341892 2.2812192
0.59270507 -0.3671166 2.291153
0.6337077 -0.34888327 2.243706
-0.043565262 -0.25094217 2.229151
0.030082462 -0.24690045 2.277719
0.64423585 -0.24892205 2.2486334
-0.03695523 -0.15085226 2.2244689
0.039272267 -0.14439857 2.2743936
0.65493143 -0.15141025 2.2527201
0.70667118 -0.14257292 2.234875
-0.029154195 -0.051976256 2.213227
0.048845969 -0.049487755 2.2683539
0.10540491 -0.024395023 2.2970006
0.66199452 -0.051747143 2.2657948
-0.018545358 0.042484071 2.2082076
0.048793662 0.049999375 2.256886
0.11395036 0.060924802 2.2904298
0.66852736 0.050612401 2.2661853
0.70252848 0.077044711 2.2405555
-0.0055601094 0.12692393 2.2080002
0.044502094 0.14373796 2.2398529
0.11951838 0.13692153 2.2848041
0.67638731 0.1463616 2.2720399
0.70629948 0.15578227 2.2281382
0.050680555 0.25423557 2.2268269
0.10543292 0.29276454 2.2588749
0.67460591 0.2242901 2.2760007
0.7097615 0.20857765 2.2345712
0.060617261 0.35001314 2.2258301
0.12240639 0.36063007 2.2638021
0.071306519 0.44910529 2.2168496
0.14462821 0.4509128 2.2622943
0.2072988 0.45182756 2.2921512
0.082624771 0.50602275 2.2206428
0.13021606 0.5078783 2.2332568
-0.043297771 -0.92765272 2.3283837
0.027291089 -0.93601543 2.3799105
0.48137808 -0.93817627 2.3755581
0.5187782 -0.92839843 2.3279104
-0.033727325 -0.85708785 2.3211555
0.037477087 -0.84946311 2.3762701
0.4822942 -0.85180914 2.376574
0.5188759 -0.84571445 2.3278461
-0.026161309 -0.74745673 2.3168781
0.044831835 -0.75079244 2.3681138
0.10731443 -0.7913574 2.3920002
0.48729351 -0.76475936 2.387367
0.52285635 -0.74891979 2.3390918
-0.012160135 -0.65625691 2.3135591
0.04939178 -0.6494171 2.3543587
0.11213686 -0.63577664 2.3918593
0.492652 -0.67808706 2.3915286
0.53180456 -0.64713895 2.3463185
-0.0035132768 -0.58671719 2.312
0.051597543 -0.55039543 2.341974
0.12190653 -0.54727334 2.3898942
0.54184425 -0.54952896 2.3515613
0.057375126 -0.45130673 2.3339992
0.13354591 -0.44678876 2.385695
0.55273569 -0.45247817 2.3493493
0.066212542 -0.35432598 2.3278232
0.14491238 -0.34648973 2.3734443
0.2028589 -0.31328887 2.3920002
0.56178123 -0.35036328 2.3522997
0.60102421 -0.3147777 2.3170002
0.080280624 -0.25219187 2.3218772
0.14949022 -0.24977913 2.3623137
0.20602395 -0.23391581 2.391999
0.5698908 -0.25027031 2.3604224
0.6054458 -0.24451758 2.3201063
0.085051514 -0.16564693 2.3172171
0.14892423 -0.14967111 2.345824
0.22296394 -0.13805337 2.3866739
0.57544625 -0.15326205 2.3669746
0.61105645 -0.14386238 2.3236983
0.098371752 -0.082311057 2.312
0.15067028 -0.05101376 2.3336923
0.23257706 -0.046495449 2.3840559
0.58267069 -0.051088583 2.3740506
0.61766273 -0.046783123 2.3295193
0.16118655 0.046749871 2.3301277
0.23646133 0.049482632 2.3751197
0.58594823 0.046286512 2.3864439
0.62044168 0.051566947 2.3358979
0.16947699 0.14640348 2.326314
0.2418724 0.14996168 2.3676565
0.58642852 0.13998407 2.3902471
0.62761891 0.15316792 2.3455253
0.26654044 0.21067019 2.3745117
0.30295312 0.21809062 2.3920002
0.59196812 0.24061272 2.3912547
0.62982976 0.23528601 2.3549535
0.21587732 0.45165661 2.3186667
0.16291757 -1.0077338 2.4764738
0.20319003 -1.0105317 2.4960001
0.3872965 -1.0085179 2.4846666
0.41038305 -1.0055245 2.4684706
0.076604389 -0.94946992 2.416899
0.14944756 -0.94829923 2.4570801
0.21753213 -0.94524527 2.491281
0.389074 -0.95559645 2.4865773
0.43170005 -0.94647306 2.4425321
0.084388234 -0.85566908 2.4120986
0.14954752 -0.85106874 2.4461055
0.22134972 -0.84909248 2.4872015
0.39445919 -0.85615617 2.4936526
0.43219483 -0.84819698 2.4468915
0.094313562 -0.76042008 2.4089987
0.1491871 -0.75110906 2.433459
0.23437348 -0.74674827 2.4771681
0.44742605 -0.74924082 2.4488382
0.15950631 -0.65238076 2.4258416
0.24407153 -0.64827043 2.4751589
0.45932585 -0.64992046 2.4491796
0.50580096 -0.63499135 2.4090002
0.17114227 -0.55094159 2.4213276
0.24829967 -0.54860663 2.4682059
0.30351707 -0.55337036 2.4959993
0.4690327 -0.54879546 2.4543245
0.50838774 -0.53212523 2.4093685
0.18131253 -0.45628518 2.4101696
0.25041345 -0.45081145 2.4598513
0.31275761 -0.44127041 2.4901938
0.47721323 -0.45266011 2.4640412
0.51206231 -0.44390821 2.4112809
0.1892142 -0.3716096 2.408998
0.25193226 -0.35171098 2.4474669
0.32273301 -0.34437016 2.4895387
0.4806886 -0.35164729 2.4783733
0.51440978 -0.34800529 2.4268842
0.25250497 -0.25146133 2.4314134
0.32846576 -0.24770771 2.4816771
0.48518184 -0.25472054 2.4803548
0.52180201 -0.2493394 2.4337015
0.26731166 -0.15852353 2.425941
0.34059051 -0.14638805 2.4751084
0.49051154 -0.15267834 2.4879816
0.52764016 -0.14787653 2.4426541
0.27986914 -0.058404446 2.4137609
0.34589842 -0.049331084 2.463608
0.4727501 -0.038827021 2.4941781
0.53488481 -0.049828619 2.4477863
0.28744316 0.050119914 2.4089975
0.34957644 0.05069235 2.4520855
0.43668538 0.046498086 2.4940553
0.54117709 0.049072914 2.4493988
0.29292795 0.14620559 2.4089978
0.35086149 0.1506903 2.4416916
0.42243579 0.1503409 2.4853392
0.54876012 0.15285181 2.4530203
0.29808363 0.21231923 2.4090002
0.35752437 0.22658911 2.4351041
0.42776695 0.24005742 2.4819989
0.55134273 0.24381194 2.4602146
0.45601666 0.31179667 2.4869995
0.52657557 0.30324689 2.4876926
0.25748903 -1.0195642 2.5344357
0.33989048 -1.021412 2.543273
0.26715973 -0.94997847 2.5309584
0.34488675 -0.9493959 2.5462015
0.27164319 -0.85178995 2.5234709
0.350963 -0.84970641 2.5414586
0.40385315 -0.80988932 2.5140002
0.28028393 -0.75919533 2.5190747
0.35141021 -0.74988359 2.5369596
0.40741715 -0.74583375 2.5196977
0.29235268 -0.65640819 2.5140004
0.35331279 -0.64935654 2.5390849
0.41489401 -0.64140427 2.5244083
0.29906964 -0.55666244 2.5140002
0.35290629 -0.54984844 2.5365512
0.41804913 -0.54814082 2.5298829
0.36078751 -0.4522728 2.5328243
0.42793742 -0.44674966 2.5369797
0.37005666 -0.35251477 2.5279703
0.43478626 -0.34900558 2.5384529
0.38017774 -0.25063747 2.5249376
0.44040662 -0.24707688 2.5357966
0.38967451 -0.1602229 2.5204298
0.44578087 -0.14947496 2.5302222
0.39621279 -0.052255329 2.5140002
0.45071861 -0.05257643 2.5269516
0.45802963 0.049723167 2.5238993
0.50760621 0.083866946 2.5194547
0.47520554 0.14854749 2.5276821
0.51128387 0.14361507 2.5195823
0.47671661 0.24995191 2.5231073
0.50894356 0.24839875 2.5200019
0.4863025 0.31737679 2.5228233
0.50770986 0.31578982 2.5233605
